ply
format ascii 1.0
comment generated by convert_depth_to_ply.py
element vertex 1678
property float x
property float y
property float z
end_header
-0.288298 -0.055272 0.745330
-0.288058 -0.055790 0.752314
-0.288674 -0.056486 0.761702
-0.288815 -0.057103 0.770018
-0.287019 -0.057346 0.773293
-0.283065 -0.057158 0.770760
-1.161748 -0.237112 3.197371
-1.190278 -0.245577 3.311527
-1.177425 -0.245597 3.311798
-1.163226 -0.245334 3.308245
-1.149108 -0.245082 3.304844
-1.133283 -0.244455 3.296401
-1.119227 -0.244201 3.292967
-1.105508 -0.244015 3.290458
-1.092145 -0.243904 3.288963
-1.079963 -0.244057 3.291029
-1.066783 -0.243986 3.290068
-1.053865 -0.243973 3.289901
-1.041462 -0.244082 3.291359
-1.029150 -0.244214 3.293143
-1.016021 -0.244153 3.292324
-1.003091 -0.244139 3.292138
-0.990582 -0.244229 3.293348
-0.978640 -0.244463 3.296500
-0.966030 -0.244534 3.297455
-0.953384 -0.244597 3.298310
-0.941082 -0.244752 3.300397
-0.928388 -0.244808 3.301148
-0.915499 -0.244812 3.301214
-0.902551 -0.244802 3.301070
-0.889721 -0.244823 3.301356
-0.876040 -0.244608 3.298452
-0.863896 -0.244821 3.301327
-0.850136 -0.244576 3.298026
-0.837987 -0.244794 3.300968
-0.824791 -0.244709 3.299814
-0.812064 -0.244761 3.300526
-0.798838 -0.244663 3.299205
-0.786174 -0.244737 3.300194
-0.773533 -0.244820 3.301317
-0.760196 -0.244682 3.299461
-0.747859 -0.244867 3.301952
-0.734749 -0.244801 3.301055
-0.722150 -0.244906 3.302470
-0.709544 -0.245012 3.303899
-0.697176 -0.245205 3.306509
-0.684533 -0.245307 3.307890
-0.671549 -0.245289 3.307646
-0.658607 -0.245286 3.307604
-0.646036 -0.245424 3.309460
-0.633002 -0.245388 3.308969
-0.619985 -0.245357 3.308553
-0.607293 -0.245456 3.309887
-0.594174 -0.245382 3.308898
-0.581168 -0.245354 3.308516
-0.568432 -0.245441 3.309686
-0.555289 -0.245351 3.308481
-0.542306 -0.245330 3.308198
-0.529077 -0.245194 3.306366
-0.516060 -0.245152 3.305794
-0.503387 -0.245276 3.307462
-0.490482 -0.245290 3.307648
-0.477362 -0.245193 3.306352
-0.464469 -0.245212 3.306607
-0.451674 -0.245285 3.307585
-0.438960 -0.245408 3.309242
-0.426135 -0.245474 3.310132
-0.413071 -0.245402 3.309159
-0.400008 -0.245326 3.308137
-0.387241 -0.245433 3.309579
-0.374377 -0.245483 3.310254
-0.361273 -0.245374 3.308784
-0.348194 -0.245274 3.307440
-0.335356 -0.245343 3.308375
-0.322535 -0.245432 3.309562
-0.309701 -0.245516 3.310698
-0.296774 -0.245531 3.310909
-0.283709 -0.245428 3.309514
-0.270763 -0.245423 3.309450
-0.257731 -0.245336 3.308272
-0.244860 -0.245401 3.309147
-0.231978 -0.245462 3.309972
-0.219087 -0.245519 3.310743
-0.206186 -0.245572 3.311463
-0.193258 -0.245598 3.311811
-0.180183 -0.245428 3.309513
-0.167252 -0.245441 3.309689
-0.154201 -0.245268 3.307355
-0.141289 -0.245302 3.307816
-0.128371 -0.245332 3.308220
-0.115447 -0.245358 3.308573
-0.102520 -0.245380 3.308874
-0.089588 -0.245399 3.309121
-0.076654 -0.245413 3.309317
-0.063704 -0.245375 3.308801
-0.050728 -0.245191 3.306319
-0.037800 -0.245196 3.306385
-0.024891 -0.245379 3.308853
-0.011952 -0.245374 3.308783
0.000986 -0.245418 3.309379
0.013925 -0.245405 3.309204
0.026863 -0.245388 3.308977
0.039807 -0.245422 3.309438
0.052795 -0.245646 3.312458
0.065787 -0.245794 3.314447
0.078736 -0.245761 3.314008
0.091681 -0.245725 3.313517
0.104501 -0.245405 3.309207
0.117324 -0.245161 3.305916
0.129897 -0.244496 3.296948
0.138998 -0.238005 3.209415
0.143910 -0.226010 3.047676
0.147642 -0.214140 2.887611
0.151075 -0.203552 2.744827
0.154305 -0.194114 2.617567
0.156801 -0.184984 2.494453
0.163905 -0.182041 2.454757
0.173071 -0.181587 2.448644
0.182584 -0.181526 2.447819
0.192087 -0.181462 2.446957
0.201581 -0.181395 2.446056
0.211065 -0.181326 2.445119
0.220537 -0.181254 2.444144
0.230062 -0.181228 2.443796
0.239742 -0.181322 2.445069
0.249372 -0.181373 2.445750
0.258900 -0.181348 2.445418
0.268509 -0.181380 2.445849
0.278210 -0.181470 2.447056
0.287793 -0.181478 2.447176
0.297332 -0.181460 2.446933
0.307007 -0.181524 2.447792
0.316647 -0.181563 2.448318
0.326315 -0.181616 2.449033
0.335831 -0.181583 2.448592
0.345525 -0.181647 2.449445
0.354898 -0.181542 2.448027
0.364598 -0.181605 2.448886
0.374298 -0.181666 2.449706
0.384001 -0.181725 2.450496
0.393353 -0.181618 2.449065
0.403012 -0.181656 2.449572
0.412705 -0.181707 2.450252
0.422397 -0.181754 2.450898
0.432020 -0.181771 2.451124
0.441777 -0.181842 2.452084
0.450637 -0.181549 2.448127
0.457984 -0.180671 2.436285
0.466422 -0.180250 2.430617
0.476081 -0.180309 2.431407
0.486118 -0.180506 2.434063
0.497273 -0.181102 2.442105
0.507867 -0.181476 2.447139
0.516738 -0.181231 2.443837
0.524867 -0.180739 2.437212
0.532860 -0.180220 2.430203
0.541769 -0.180023 2.427544
0.551239 -0.180015 2.427449
0.562363 -0.180540 2.434516
0.574217 -0.181277 2.444456
0.584381 -0.181465 2.446992
0.594004 -0.181481 2.447216
0.604192 -0.181667 2.449726
0.614392 -0.181851 2.452206
0.624470 -0.181994 2.454132
0.634209 -0.182035 2.454683
0.643805 -0.182035 2.454676
0.653980 -0.182195 2.456844
0.663620 -0.182205 2.456967
0.673479 -0.182273 2.457885
0.683102 -0.182276 2.457932
0.693008 -0.182354 2.458978
0.702784 -0.182395 2.459542
0.712815 -0.182501 2.460971
0.722582 -0.182538 2.461463
0.732618 -0.182640 2.462846
0.742276 -0.182647 2.462939
0.752416 -0.182771 2.464606
0.761939 -0.182744 2.464239
0.772050 -0.182856 2.465756
0.781714 -0.182862 2.465827
0.791207 -0.182827 2.465364
0.800694 -0.182792 2.464895
0.810710 -0.182878 2.466044
0.820425 -0.182894 2.466260
0.829879 -0.182852 2.465697
0.839793 -0.182911 2.466500
0.848746 -0.182762 2.464491
0.858093 -0.182701 2.463661
0.867557 -0.182665 2.463179
0.877797 -0.182792 2.464891
0.886749 -0.182651 2.462984
0.900232 -0.183436 2.473570
0.906758 -0.182801 2.465016
0.536113 -0.106943 1.442091
0.302406 -0.059696 0.804976
0.303402 -0.059275 0.799307
0.303842 -0.058756 0.792304
0.304073 -0.058207 0.784904
0.304865 -0.057776 0.779086
0.305588 -0.057340 0.773206
0.305183 -0.056703 0.764617
-0.293623 -0.048412 0.689407
-0.292484 -0.048671 0.693096
-0.290807 -0.048844 0.695566
-0.289737 -0.049124 0.699548
-0.289146 -0.049491 0.704776
-0.288951 -0.049934 0.711078
-0.288443 -0.050330 0.716725
-0.288329 -0.050804 0.723471
-0.288359 -0.051313 0.730714
-0.288572 -0.051865 0.738573
-0.288594 -0.052393 0.746096
-0.288333 -0.052880 0.753033
-0.288741 -0.053501 0.761878
-0.289161 -0.054138 0.770941
-0.287187 -0.054334 0.773746
-0.278025 -0.053161 0.757036
-1.142273 -0.220764 3.143772
-1.190826 -0.232651 3.313053
-1.175472 -0.232178 3.306304
-1.163501 -0.232369 3.309025
-1.149589 -0.232172 3.306227
-1.134660 -0.231763 3.300405
-1.119820 -0.231363 3.294712
-1.106115 -0.231192 3.292265
-1.092597 -0.231055 3.290324
-1.080612 -0.231244 3.293007
-1.067094 -0.231105 3.291027
-1.054334 -0.231128 3.291365
-1.041713 -0.231184 3.292152
-1.029621 -0.231359 3.294651
-1.016386 -0.231279 3.293507
-1.004164 -0.231430 3.295661
-0.991791 -0.231550 3.297367
-0.978999 -0.231574 3.297709
-0.966677 -0.231711 3.299664
-0.953687 -0.231690 3.299358
-0.941458 -0.231855 3.301714
-0.928818 -0.231923 3.302675
-0.915863 -0.231912 3.302526
-0.903563 -0.232070 3.304772
-0.889940 -0.231887 3.302172
-0.876231 -0.231676 3.299169
-0.864110 -0.231886 3.302147
-0.850347 -0.231654 3.298845
-0.838212 -0.231865 3.301853
-0.825237 -0.231847 3.301599
-0.812299 -0.231839 3.301482
-0.799953 -0.232002 3.303807
-0.786371 -0.231807 3.301022
-0.773895 -0.231936 3.302862
-0.760856 -0.231898 3.302322
-0.748115 -0.231951 3.303083
-0.735812 -0.232144 3.305831
-0.723401 -0.232310 3.308190
-0.710030 -0.232167 3.306160
-0.697353 -0.232251 3.307348
-0.684952 -0.232431 3.309915
-0.672425 -0.232575 3.311964
-0.659318 -0.232519 3.311173
-0.646312 -0.232498 3.310874
-0.633822 -0.232666 3.313256
-0.620751 -0.232622 3.312639
-0.607572 -0.232536 3.311407
-0.595026 -0.232693 3.313646
-0.581318 -0.232393 3.309366
-0.568745 -0.232543 3.311507
-0.555591 -0.232457 3.310281
-0.542466 -0.232379 3.309175
-0.529732 -0.232469 3.310460
-0.516271 -0.232237 3.307146
-0.503552 -0.232335 3.308543
-0.490852 -0.232447 3.310144
-0.477737 -0.232363 3.308952
-0.464590 -0.232259 3.307467
-0.451889 -0.232378 3.309162
-0.439170 -0.232495 3.310821
-0.426431 -0.232608 3.312428
-0.413298 -0.232506 3.310980
-0.400194 -0.232414 3.309678
-0.387343 -0.232468 3.310444
-0.374496 -0.232529 3.311306
-0.361706 -0.232630 3.312751
-0.348625 -0.232545 3.311543
-0.335463 -0.232397 3.309430
-0.322620 -0.232467 3.310431
-0.309782 -0.232547 3.311567
-0.296932 -0.232624 3.312668
-0.284009 -0.232649 3.313024
-0.270917 -0.232531 3.311337
-0.257798 -0.232377 3.309143
-0.244924 -0.232438 3.310019
-0.232039 -0.232496 3.310843
-0.219144 -0.232550 3.311616
-0.206240 -0.232601 3.312336
-0.193328 -0.232648 3.313005
-0.180370 -0.232644 3.312944
-0.167315 -0.232504 3.310950
-0.154291 -0.232387 3.309283
-0.141326 -0.232345 3.308690
-0.128404 -0.232373 3.309094
-0.115478 -0.232398 3.309448
-0.102547 -0.232419 3.309748
-0.089612 -0.232437 3.309996
-0.076674 -0.232450 3.310191
-0.063733 -0.232460 3.310334
-0.050791 -0.232467 3.310424
-0.037847 -0.232469 3.310461
-0.024903 -0.232468 3.310444
-0.011958 -0.232463 3.310375
0.000986 -0.232455 3.310254
0.013929 -0.232443 3.310079
0.026891 -0.232606 3.312408
0.039856 -0.232687 3.313559
0.052847 -0.232838 3.315708
0.065804 -0.232811 3.315322
0.078784 -0.232858 3.316000
0.091742 -0.232838 3.315714
0.104636 -0.232682 3.313489
0.117512 -0.232522 3.311211
0.130005 -0.231712 3.299675
0.139014 -0.225400 3.209796
0.143948 -0.214072 3.048479
0.147795 -0.202986 2.890603
0.151262 -0.192988 2.748232
0.154599 -0.184162 2.622551
0.156812 -0.175179 2.494619
0.163948 -0.172425 2.455402
0.173116 -0.171995 2.449287
0.182773 -0.172070 2.450353
0.192138 -0.171877 2.447598
0.201634 -0.171814 2.446697
0.211120 -0.171748 2.445759
0.220636 -0.171711 2.445233
0.230333 -0.171812 2.446681
0.239978 -0.171868 2.447479
0.249630 -0.171925 2.448278
0.259137 -0.171881 2.447651
0.268813 -0.171948 2.448613
0.278283 -0.171884 2.447693
0.287989 -0.171964 2.448844
0.297588 -0.171978 2.449040
0.307109 -0.171948 2.448606
0.316800 -0.172010 2.449500
0.326453 -0.172050 2.450069
0.336126 -0.172098 2.450747
0.345626 -0.172056 2.450156
0.355336 -0.172119 2.451051
0.364958 -0.172137 2.451306
0.374395 -0.172069 2.450339
0.384100 -0.172125 2.451126
0.393804 -0.172177 2.451877
0.403168 -0.172082 2.450521
0.412884 -0.172138 2.451313
0.422580 -0.172183 2.451957
0.432315 -0.172242 2.452795
0.442000 -0.172279 2.453321
0.450813 -0.171981 2.449084
0.458199 -0.171163 2.437432
0.466999 -0.170895 2.433622
0.476381 -0.170848 2.432940
0.486719 -0.171138 2.437070
0.497655 -0.171623 2.443981
0.508424 -0.172033 2.449820
0.516946 -0.171682 2.444822
0.524998 -0.171190 2.437824
0.532993 -0.170698 2.430812
0.541904 -0.170511 2.428151
0.551424 -0.170519 2.428263
0.562503 -0.171001 2.435123
0.574360 -0.171699 2.445064
0.584544 -0.171882 2.447673
0.594151 -0.171893 2.447822
0.604341 -0.172069 2.450331
0.614544 -0.172243 2.452812
0.624730 -0.172407 2.455153
0.634364 -0.172417 2.455286
0.644551 -0.172574 2.457519
0.654191 -0.172582 2.457637
0.663782 -0.172577 2.457567
0.673959 -0.172722 2.459639
0.683604 -0.172729 2.459737
0.693176 -0.172718 2.459575
0.703016 -0.172773 2.460353
0.712987 -0.172858 2.461565
0.723245 -0.173009 2.463719
0.732795 -0.172989 2.463439
0.743059 -0.173136 2.465535
0.752596 -0.173113 2.465195
0.762729 -0.173225 2.466792
0.772389 -0.173228 2.466839
0.782508 -0.173333 2.468332
0.791996 -0.173297 2.467824
0.801613 -0.173290 2.467723
0.811129 -0.173262 2.467319
0.820618 -0.173228 2.466841
0.830580 -0.173294 2.467781
0.840125 -0.173273 2.467475
0.849521 -0.173221 2.466743
0.858902 -0.173168 2.465984
0.868161 -0.173092 2.464897
0.878001 -0.173131 2.465462
0.886954 -0.172997 2.463553
0.900604 -0.173772 2.474593
0.909484 -0.173621 2.472428
0.525045 -0.099177 1.412318
0.302898 -0.056620 0.806285
0.303375 -0.056125 0.799237
0.303451 -0.055566 0.791286
0.304142 -0.055131 0.785082
0.304857 -0.054708 0.779065
0.305646 -0.054307 0.773353
0.305252 -0.053706 0.764789
-0.293680 -0.045708 0.689540
-0.292539 -0.045952 0.693227
-0.290869 -0.046117 0.695714
-0.290183 -0.046442 0.700627
-0.289208 -0.046727 0.704926
-0.289153 -0.047168 0.711576
-0.288505 -0.047520 0.716879
-0.288392 -0.047967 0.723627
-0.288247 -0.048418 0.730431
-0.288635 -0.048968 0.738733
-0.288758 -0.049484 0.746518
-0.288692 -0.049978 0.753969
-0.288804 -0.050514 0.762045
-0.289510 -0.051165 0.771871
-0.287250 -0.051301 0.773916
-0.276028 -0.049821 0.751597
-1.111318 -0.202744 3.058577
-1.190400 -0.219534 3.311866
-1.171214 -0.218371 3.294325
-1.158844 -0.218468 3.295781
-1.145803 -0.218438 3.295338
-1.131142 -0.218096 3.290171
-1.117430 -0.217930 3.287679
-1.104630 -0.217941 3.287844
-1.092586 -0.218103 3.290289
-1.079324 -0.218023 3.289082
-1.065663 -0.217860 3.286614
-1.053295 -0.217960 3.288123
-1.039980 -0.217864 3.286673
-1.027239 -0.217887 3.287026
-1.014566 -0.217926 3.287611
-1.001423 -0.217863 3.286664
-0.989093 -0.217978 3.288397
-0.976158 -0.217961 3.288140
-0.962739 -0.217834 3.286222
-0.949499 -0.217744 3.284870
-0.936895 -0.217800 3.285713
-0.924141 -0.217822 3.286046
-0.911322 -0.217829 3.286153
-0.899342 -0.218040 3.289334
-0.885717 -0.217852 3.286501
-0.873476 -0.218005 3.288797
-0.859930 -0.217831 3.286172
-0.847877 -0.218035 3.289263
-0.835404 -0.218137 3.290795
-0.822711 -0.218183 3.291492
-0.809918 -0.218204 3.291806
-0.797364 -0.218291 3.293117
-0.784053 -0.218170 3.291290
-0.770996 -0.218117 3.290490
-0.758782 -0.218304 3.293320
-0.745891 -0.218300 3.293260
-0.733541 -0.218458 3.295631
-0.721106 -0.218594 3.297693
-0.707916 -0.218503 3.296316
-0.695254 -0.218575 3.297397
-0.682218 -0.218529 3.296706
-0.669426 -0.218561 3.297189
-0.656870 -0.218673 3.298881
-0.644444 -0.218834 3.301303
-0.631470 -0.218811 3.300963
-0.618300 -0.218718 3.299558
-0.604672 -0.218456 3.295600
-0.592149 -0.218590 3.297624
-0.579072 -0.218521 3.296585
-0.565996 -0.218449 3.295497
-0.553459 -0.218587 3.297581
-0.540808 -0.218685 3.299063
-0.527285 -0.218427 3.295164
-0.514066 -0.218285 3.293026
-0.501118 -0.218254 3.292553
-0.488516 -0.218375 3.294390
-0.475520 -0.218323 3.293597
-0.462434 -0.218225 3.292119
-0.449705 -0.218295 3.293172
-0.436363 -0.218062 3.289665
-0.422912 -0.217759 3.285097
-0.409854 -0.217646 3.283393
-0.396804 -0.217530 3.281639
-0.384117 -0.217612 3.282876
-0.373065 -0.218658 3.298657
-0.361441 -0.219432 3.310329
-0.348961 -0.219724 3.314731
-0.335551 -0.219430 3.310298
-0.322700 -0.219493 3.311250
-0.309859 -0.219568 3.312388
-0.297006 -0.219641 3.313490
-0.284138 -0.219710 3.314523
-0.271171 -0.219705 3.314445
-0.258061 -0.219577 3.312520
-0.244985 -0.219466 3.310842
-0.232097 -0.219521 3.311667
-0.219199 -0.219572 3.312440
-0.206292 -0.219620 3.313161
-0.193376 -0.219664 3.313830
-0.180452 -0.219705 3.314447
-0.167503 -0.219719 3.314667
-0.154431 -0.219562 3.312286
-0.141472 -0.219550 3.312112
-0.128469 -0.219460 3.310746
-0.115507 -0.219428 3.310274
-0.102572 -0.219448 3.310574
-0.089634 -0.219465 3.310822
-0.076693 -0.219478 3.311018
-0.063749 -0.219487 3.311160
-0.050804 -0.219493 3.311250
-0.037857 -0.219495 3.311287
-0.024909 -0.219494 3.311271
-0.011961 -0.219490 3.311202
0.000986 -0.219508 3.311478
0.013948 -0.219719 3.314661
0.026925 -0.219852 3.316670
0.039896 -0.219865 3.316869
0.052874 -0.219902 3.317426
0.065877 -0.220007 3.318999
0.078916 -0.220176 3.321553
0.091890 -0.220143 3.321061
0.104751 -0.219882 3.317117
0.117614 -0.219680 3.314079
0.130054 -0.218808 3.300919
0.139176 -0.213015 3.213527
0.143883 -0.201984 3.047112
0.147951 -0.191811 2.893641
0.151419 -0.182362 2.751091
0.154561 -0.173798 2.621897
0.156851 -0.165402 2.495238
0.164148 -0.162961 2.458411
0.173328 -0.162555 2.452288
0.182855 -0.162500 2.451461
0.192340 -0.162415 2.450171
0.201875 -0.162378 2.449626
0.211346 -0.162295 2.448373
0.220865 -0.162256 2.447776
0.230533 -0.162324 2.448800
0.240241 -0.162414 2.450160
0.249742 -0.162362 2.449382
0.259425 -0.162428 2.450376
0.268908 -0.162369 2.449479
0.278597 -0.162434 2.450461
0.288188 -0.162439 2.450538
0.297773 -0.162440 2.450560
0.307384 -0.162456 2.450791
0.317072 -0.162510 2.451610
0.326610 -0.162486 2.451249
0.336264 -0.162519 2.451748
0.345941 -0.162562 2.452391
0.355422 -0.162512 2.451648
0.365137 -0.162569 2.452506
0.374778 -0.162592 2.452844
0.384497 -0.162646 2.453663
0.393927 -0.162578 2.452639
0.403607 -0.162614 2.453186
0.412984 -0.162530 2.451906
0.422701 -0.162580 2.452663
0.432419 -0.162628 2.453385
0.442136 -0.162673 2.454073
0.451084 -0.162440 2.450557
0.458459 -0.161662 2.438814
0.467155 -0.161372 2.434436
0.476781 -0.161408 2.434981
0.487093 -0.161670 2.438941
0.497774 -0.162043 2.444563
0.508612 -0.162452 2.450730
0.517353 -0.162188 2.446746
0.525123 -0.161634 2.438402
0.533119 -0.161169 2.431387
0.542032 -0.160993 2.428725
0.551566 -0.161004 2.428890
0.562636 -0.161455 2.435696
0.574495 -0.162114 2.445638
0.584681 -0.162287 2.448246
0.594862 -0.162453 2.450750
0.604956 -0.162591 2.452827
0.614687 -0.162627 2.453383
0.624903 -0.162790 2.455834
0.635010 -0.162919 2.457783
0.644741 -0.162950 2.458246
0.654671 -0.163029 2.459438
0.664532 -0.163089 2.460343
0.674177 -0.163095 2.460434
0.683761 -0.163086 2.460302
0.693939 -0.163217 2.462283
0.703586 -0.163222 2.462350
0.713847 -0.163367 2.464533
0.723585 -0.163389 2.464877
0.733677 -0.163491 2.466405
0.743227 -0.163470 2.466094
0.753381 -0.163581 2.467767
0.763038 -0.163583 2.467793
0.773318 -0.163716 2.469805
0.782839 -0.163688 2.469377
0.792349 -0.163658 2.468922
0.801846 -0.163625 2.468439
0.811892 -0.163705 2.469640
0.821472 -0.163690 2.469407
0.830898 -0.163645 2.468727
0.840480 -0.163631 2.468518
0.849708 -0.163549 2.467287
0.859091 -0.163499 2.466527
0.868730 -0.163498 2.466512
0.878976 -0.163610 2.468200
0.887844 -0.163465 2.466025
0.902480 -0.164375 2.479745
0.910897 -0.164145 2.476270
0.510065 -0.090947 1.372024
0.302430 -0.053364 0.805040
0.303311 -0.052968 0.799068
0.303383 -0.052440 0.791108
0.304207 -0.052052 0.785251
0.304922 -0.051653 0.779231
0.305711 -0.051274 0.773518
0.305317 -0.050706 0.764952
-0.293737 -0.043002 0.689675
-0.292598 -0.043232 0.693365
-0.290927 -0.043387 0.695853
-0.289857 -0.043636 0.699838
-0.289266 -0.043962 0.705068
-0.289072 -0.044355 0.711374
-0.288564 -0.044707 0.717025
-0.288450 -0.045128 0.723774
-0.288306 -0.045553 0.730580
-0.288694 -0.046070 0.738884
-0.288486 -0.046503 0.745817
-0.288350 -0.046955 0.753078
-0.288863 -0.047524 0.762201
-0.289397 -0.048108 0.771571
-0.287802 -0.048347 0.775402
-0.277767 -0.047158 0.756332
-1.042744 -0.178939 2.869847
-1.186466 -0.205817 3.300923
-1.164903 -0.204299 3.276575
-1.153107 -0.204479 3.279465
-1.139360 -0.204314 3.276808
-1.124729 -0.203984 3.271519
-1.110169 -0.203659 3.266316
-1.096615 -0.203514 3.263989
-1.083044 -0.203362 3.261554
-1.071159 -0.203527 3.264200
-1.057905 -0.203433 3.262689
-1.045785 -0.203557 3.264677
-1.032666 -0.203487 3.263559
-1.019189 -0.203345 3.261268
-1.006515 -0.203360 3.261523
-0.993722 -0.203352 3.261391
-0.980330 -0.203220 3.259264
-0.967936 -0.203293 3.260444
-0.954841 -0.203220 3.259263
-0.941668 -0.203127 3.257776
-0.929426 -0.203235 3.259518
-0.916896 -0.203283 3.260284
-0.904055 -0.203262 3.259948
-0.892173 -0.203460 3.263114
-0.880288 -0.203662 3.266356
-0.867528 -0.203665 3.266399
-0.854740 -0.203661 3.266340
-0.842744 -0.203848 3.269349
-0.830070 -0.203875 3.269781
-0.817238 -0.203864 3.269593
-0.805063 -0.204018 3.272074
-0.792054 -0.203963 3.271185
-0.779368 -0.203990 3.271623
-0.766254 -0.203905 3.270255
-0.753617 -0.203945 3.270905
-0.740563 -0.203873 3.269736
-0.727838 -0.203890 3.270008
-0.714711 -0.203792 3.268447
-0.701722 -0.203732 3.267475
-0.688500 -0.203600 3.265364
-0.675240 -0.203452 3.262986
-0.662679 -0.203512 3.263957
-0.649981 -0.203532 3.264280
-0.637153 -0.203512 3.263955
-0.624531 -0.203558 3.264687
-0.611260 -0.203389 3.261987
-0.598656 -0.203441 3.262814
-0.585821 -0.203414 3.262385
-0.572985 -0.203386 3.261929
-0.560394 -0.203445 3.262881
-0.547491 -0.203392 3.262022
-0.534694 -0.203376 3.261764
-0.522140 -0.203453 3.263013
-0.509609 -0.203544 3.264472
-0.497129 -0.203661 3.266343
-0.484488 -0.203716 3.267228
-0.471695 -0.203708 3.267099
-0.458909 -0.203703 3.267023
-0.446126 -0.203700 3.266960
-0.433526 -0.203782 3.268276
-0.420506 -0.203665 3.266407
-0.407600 -0.203598 3.265332
-0.394939 -0.203653 3.266219
-0.382611 -0.203889 3.270001
-0.371343 -0.204726 3.283425
-0.361760 -0.206585 3.313245
-0.349101 -0.206761 3.316063
-0.335952 -0.206649 3.314260
-0.323090 -0.206711 3.315258
-0.309931 -0.206580 3.313160
-0.297075 -0.206649 3.314263
-0.284204 -0.206713 3.315298
-0.271322 -0.206775 3.316280
-0.258337 -0.206761 3.316060
-0.245237 -0.206648 3.314255
-0.232151 -0.206535 3.312442
-0.219250 -0.206584 3.313215
-0.206340 -0.206629 3.313937
-0.193421 -0.206670 3.314606
-0.180494 -0.206709 3.315224
-0.167560 -0.206744 3.315788
-0.154602 -0.206754 3.315950
-0.141533 -0.206603 3.313526
-0.128592 -0.206628 3.313931
-0.115631 -0.206623 3.313852
-0.102693 -0.206661 3.314454
-0.089727 -0.206647 3.314239
-0.076711 -0.206495 3.311795
-0.063764 -0.206504 3.311938
-0.050815 -0.206510 3.312028
-0.037866 -0.206514 3.312096
-0.024935 -0.206675 3.314688
-0.011974 -0.206675 3.314682
0.000988 -0.206871 3.317827
0.013963 -0.206892 3.318157
0.026935 -0.206878 3.317929
0.039915 -0.206909 3.318427
0.052970 -0.207219 3.323406
0.065965 -0.207219 3.323412
0.078949 -0.207192 3.322971
0.091929 -0.207161 3.322479
0.104893 -0.207107 3.321616
0.117783 -0.206936 3.318865
0.130250 -0.206128 3.305907
0.139217 -0.200428 3.214485
0.144050 -0.190212 3.050647
0.148007 -0.180491 2.894742
0.151455 -0.171574 2.751734
0.154466 -0.163378 2.620286
0.156873 -0.155604 2.495593
0.164312 -0.153438 2.460856
0.173369 -0.152939 2.452860
0.183044 -0.153009 2.453987
0.192418 -0.152834 2.451167
0.201928 -0.152777 2.450264
0.211428 -0.152719 2.449323
0.221102 -0.152786 2.450401
0.230814 -0.152872 2.451783
0.240534 -0.152957 2.453143
0.250044 -0.152907 2.452344
0.259602 -0.152889 2.452047
0.269233 -0.152913 2.452439
0.278803 -0.152902 2.452271
0.288408 -0.152911 2.452405
0.298020 -0.152923 2.452600
0.307556 -0.152896 2.452163
0.317262 -0.152953 2.453075
0.326883 -0.152966 2.453292
0.336621 -0.153032 2.454351
0.346127 -0.152992 2.453711
0.355845 -0.153045 2.454561
0.365495 -0.153067 2.454916
0.375234 -0.153125 2.455832
0.384668 -0.153057 2.454755
0.394310 -0.153074 2.455024
0.404030 -0.153120 2.455760
0.413468 -0.153059 2.454779
0.423116 -0.153077 2.455068
0.432766 -0.153095 2.455357
0.442528 -0.153151 2.456251
0.451186 -0.152830 2.451111
0.458860 -0.152197 2.440949
0.467505 -0.151904 2.436258
0.477115 -0.151931 2.436690
0.487254 -0.152122 2.439751
0.497886 -0.152456 2.445111
0.508726 -0.152841 2.451279
0.517689 -0.152657 2.448339
0.525370 -0.152109 2.439547
0.533238 -0.151634 2.431928
0.542153 -0.151468 2.429264
0.552080 -0.151586 2.431150
0.562760 -0.151903 2.436235
0.574622 -0.152523 2.446179
0.585364 -0.152830 2.451106
0.595001 -0.152844 2.451327
0.605206 -0.153000 2.453837
0.615403 -0.153150 2.456243
0.625040 -0.153158 2.456371
0.635270 -0.153309 2.458792
0.645314 -0.153411 2.460430
0.654894 -0.153402 2.460275
0.664728 -0.153451 2.461070
0.674323 -0.153445 2.460967
0.684180 -0.153497 2.461809
0.694162 -0.153576 2.463074
0.703964 -0.153613 2.463671
0.714000 -0.153700 2.465062
0.724181 -0.153815 2.466909
0.733834 -0.153817 2.466932
0.744112 -0.153947 2.469029
0.753662 -0.153926 2.468687
0.763825 -0.154029 2.470337
0.773481 -0.154028 2.470328
0.783024 -0.154006 2.469962
0.793134 -0.154093 2.471369
0.802609 -0.154057 2.470790
0.812275 -0.154058 2.470805
0.821774 -0.154028 2.470316
0.831242 -0.153992 2.469748
0.840697 -0.153955 2.469154
0.850137 -0.153916 2.468532
0.860249 -0.153999 2.469851
0.869763 -0.153973 2.469444
0.880021 -0.154079 2.471134
0.889414 -0.154032 2.470385
0.903975 -0.154872 2.483853
0.908241 -0.153949 2.469050
0.482082 -0.080854 1.296753
0.301710 -0.050076 0.803123
0.302910 -0.049757 0.798011
0.303444 -0.049337 0.791268
0.303765 -0.048890 0.784109
0.304983 -0.048596 0.779388
0.305822 -0.048247 0.773798
0.305378 -0.047705 0.765105
-0.293792 -0.040295 0.689802
-0.292207 -0.040449 0.692440
-0.290981 -0.040656 0.695983
-0.289911 -0.040889 0.699969
-0.289320 -0.041195 0.705201
-0.288775 -0.041513 0.710644
-0.288618 -0.041893 0.717160
-0.288505 -0.042288 0.723911
-0.288361 -0.042685 0.730719
-0.288228 -0.043093 0.737691
-0.288541 -0.043576 0.745959
-0.288301 -0.043984 0.752951
-0.288355 -0.044446 0.760860
-0.289768 -0.045130 0.772559
-0.288458 -0.045399 0.777169
-0.282704 -0.044967 0.769775
-0.973931 -0.156581 2.680459
-1.182121 -0.192120 3.288835
-1.160559 -0.190690 3.264358
-1.148808 -0.190858 3.267238
-1.135063 -0.190695 3.264450
-1.119243 -0.190176 3.255562
-1.105686 -0.190034 3.253127
-1.092934 -0.190028 3.253032
-1.080365 -0.190055 3.253486
-1.068737 -0.190250 3.256819
-1.055335 -0.190129 3.254761
-1.043572 -0.190305 3.257770
-1.030352 -0.190216 3.256248
-1.018280 -0.190340 3.258360
-1.005074 -0.190251 3.256850
-0.992040 -0.190194 3.255871
-0.979500 -0.190231 3.256504
-0.966402 -0.190159 3.255275
-0.954051 -0.190235 3.256564
-0.941039 -0.190179 3.255603
-0.928635 -0.190245 3.256746
-0.915910 -0.190247 3.256776
-0.903881 -0.190396 3.259323
-0.892034 -0.190588 3.262605
-0.878668 -0.190456 3.260345
-0.866538 -0.190591 3.262673
-0.853921 -0.190623 3.263209
-0.841132 -0.190616 3.263096
-0.828995 -0.190759 3.265548
-0.816896 -0.190916 3.268225
-0.804036 -0.190897 3.267899
-0.791337 -0.190916 3.268222
-0.778583 -0.190922 3.268329
-0.765632 -0.190879 3.267596
-0.752621 -0.190820 3.266584
-0.739896 -0.190832 3.266792
-0.727125 -0.190833 3.266804
-0.714133 -0.190775 3.265808
-0.700611 -0.190570 3.262302
-0.687941 -0.190594 3.262710
-0.674789 -0.190482 3.260804
-0.662091 -0.190497 3.261061
-0.649029 -0.190406 3.259503
-0.636725 -0.190538 3.261759
-0.623403 -0.190365 3.258790
-0.610894 -0.190438 3.260039
-0.597530 -0.190241 3.256677
-0.585058 -0.190326 3.258132
-0.572680 -0.190447 3.260192
-0.559722 -0.190375 3.258969
-0.546832 -0.190324 3.258096
-0.534423 -0.190442 3.260109
-0.521897 -0.190523 3.261497
-0.509100 -0.190506 3.261211
-0.496572 -0.190592 3.262680
-0.483914 -0.190631 3.263351
-0.471115 -0.190616 3.263087
-0.458598 -0.190716 3.264811
-0.446061 -0.190814 3.266487
-0.433083 -0.190724 3.264938
-0.420276 -0.190705 3.264621
-0.407541 -0.190719 3.264861
-0.394954 -0.190806 3.266337
-0.382349 -0.190889 3.267763
-0.370941 -0.191596 3.279876
-0.361768 -0.193550 3.313324
-0.349177 -0.193752 3.316782
-0.336334 -0.193825 3.318026
-0.323423 -0.193863 3.318676
-0.310295 -0.193768 3.317050
-0.297140 -0.193647 3.314985
-0.284266 -0.193708 3.316020
-0.271381 -0.193765 3.317003
-0.258483 -0.193820 3.317935
-0.245534 -0.193839 3.318257
-0.232417 -0.193720 3.316232
-0.219476 -0.193743 3.316620
-0.206486 -0.193723 3.316274
-0.193463 -0.193668 3.315331
-0.180534 -0.193704 3.315948
-0.167596 -0.193737 3.316513
-0.154652 -0.193767 3.317026
-0.141702 -0.193794 3.317489
-0.128746 -0.193817 3.317895
-0.115771 -0.193814 3.317844
-0.102802 -0.193823 3.317995
-0.089835 -0.193838 3.318244
-0.076803 -0.193692 3.315757
-0.063830 -0.193668 3.315344
-0.050876 -0.193706 3.315990
-0.037941 -0.193865 3.318710
-0.024965 -0.193864 3.318694
-0.011988 -0.193863 3.318684
0.000989 -0.193885 3.319059
0.013977 -0.194032 3.321569
0.026968 -0.194051 3.321898
0.039986 -0.194192 3.324303
0.052988 -0.194205 3.324527
0.066000 -0.194243 3.325186
0.079064 -0.194396 3.327805
0.092077 -0.194398 3.327842
0.104926 -0.194096 3.322660
0.117897 -0.194061 3.322062
0.130287 -0.193172 3.306853
0.139248 -0.187818 3.215186
0.144212 -0.178407 3.054085
0.148199 -0.169318 2.898506
0.151539 -0.160834 2.753268
0.154623 -0.153222 2.622950
0.157046 -0.145943 2.498346
0.164383 -0.143815 2.461923
0.173407 -0.143317 2.453393
0.182939 -0.143270 2.452586
0.192460 -0.143218 2.451699
0.202000 -0.143185 2.451140
0.211651 -0.143230 2.451915
0.221223 -0.143220 2.451741
0.230958 -0.143312 2.453313
0.240615 -0.143350 2.453968
0.250217 -0.143355 2.454039
0.259823 -0.143360 2.454138
0.269291 -0.143292 2.452968
0.279020 -0.143363 2.454176
0.288470 -0.143290 2.452933
0.298196 -0.143355 2.454048
0.307656 -0.143292 2.452963
0.317347 -0.143337 2.453730
0.327011 -0.143367 2.454252
0.336742 -0.143424 2.455232
0.346251 -0.143386 2.454586
0.355927 -0.143418 2.455130
0.365639 -0.143462 2.455881
0.375080 -0.143400 2.454822
0.384740 -0.143423 2.455215
0.394464 -0.143468 2.455985
0.404179 -0.143508 2.456663
0.413569 -0.143433 2.455380
0.423222 -0.143451 2.455682
0.432914 -0.143481 2.456196
0.442214 -0.143382 2.454504
0.451281 -0.143214 2.451627
0.459144 -0.142678 2.442457
0.467603 -0.142346 2.436770
0.477454 -0.142442 2.438419
0.487530 -0.142601 2.441131
0.498393 -0.142978 2.447601
0.508832 -0.143223 2.451790
0.517797 -0.143051 2.448849
0.525545 -0.142556 2.440361
0.533349 -0.142092 2.432433
0.542634 -0.142033 2.431423
0.552282 -0.142070 2.432042
0.562823 -0.142330 2.436506
0.574740 -0.142925 2.446682
0.585502 -0.143217 2.451683
0.595605 -0.143341 2.453814
0.605758 -0.143474 2.456078
0.615548 -0.143517 2.456821
0.625755 -0.143655 2.459182
0.635400 -0.143661 2.459293
0.645609 -0.143794 2.461555
0.655218 -0.143790 2.461493
0.664863 -0.143794 2.461568
0.674818 -0.143865 2.462774
0.684715 -0.143921 2.463734
0.694302 -0.143911 2.463569
0.704496 -0.144026 2.465533
0.714349 -0.144069 2.466265
0.724416 -0.144153 2.467709
0.734136 -0.144167 2.467947
0.744260 -0.144259 2.469520
0.753934 -0.144262 2.469581
0.764097 -0.144358 2.471217
0.774269 -0.144453 2.472845
0.783924 -0.144450 2.472799
0.793443 -0.144423 2.472332
0.802955 -0.144395 2.471854
0.812451 -0.144365 2.471340
0.822607 -0.144452 2.472819
0.832046 -0.144412 2.472136
0.841645 -0.144400 2.471939
0.851089 -0.144363 2.471296
0.860570 -0.144332 2.470773
0.870504 -0.144377 2.471548
0.880737 -0.144471 2.473145
0.890532 -0.144491 2.473492
0.905641 -0.145364 2.488431
0.896084 -0.142301 2.435998
0.444822 -0.069896 1.196527
0.301387 -0.046865 0.802265
0.302967 -0.046625 0.798162
0.303501 -0.046231 0.791417
0.303750 -0.045802 0.784070
0.305040 -0.045537 0.779534
0.305879 -0.045210 0.773943
0.305434 -0.044703 0.765247
-0.293843 -0.037587 0.689924
-0.292703 -0.037788 0.693614
-0.291032 -0.037924 0.696104
-0.289961 -0.038141 0.700091
-0.289371 -0.038426 0.705324
-0.288752 -0.038713 0.710589
-0.288669 -0.039078 0.717286
-0.288555 -0.039446 0.724038
-0.288357 -0.039809 0.730709
-0.288236 -0.040191 0.737713
-0.288592 -0.040647 0.746091
-0.288353 -0.041028 0.753084
-0.288406 -0.041459 0.760996
-0.289820 -0.042097 0.772697
-0.288704 -0.042376 0.777831
-0.290058 -0.043028 0.789801
-0.988266 -0.148181 2.719913
-1.181937 -0.179148 3.288323
-1.158270 -0.177492 3.257920
-1.146422 -0.177630 3.260453
-1.132723 -0.177481 3.257721
-1.119069 -0.177336 3.255056
-1.105526 -0.177205 3.252656
-1.092950 -0.177228 3.253081
-1.080563 -0.177283 3.254084
-1.067856 -0.177286 3.254134
-1.055530 -0.177352 3.255362
-1.043355 -0.177447 3.257092
-1.030428 -0.177414 3.256487
-1.018469 -0.177549 3.258965
-1.005261 -0.177467 3.257457
-0.992225 -0.177413 3.256479
-0.980096 -0.177523 3.258486
-0.966920 -0.177443 3.257022
-0.954230 -0.177451 3.257175
-0.941526 -0.177457 3.257288
-0.929455 -0.177584 3.259620
-0.916083 -0.177463 3.257391
-0.904053 -0.177602 3.259941
-0.892203 -0.177781 3.263224
-0.878688 -0.177628 3.260418
-0.866703 -0.177785 3.263294
-0.853941 -0.177784 3.263288
-0.841157 -0.177779 3.263194
-0.829154 -0.177942 3.266174
-0.816454 -0.177957 3.266457
-0.803524 -0.177922 3.265816
-0.791340 -0.178054 3.268238
-0.777966 -0.177918 3.265740
-0.765780 -0.178053 3.268228
-0.752641 -0.177968 3.266668
-0.740039 -0.178010 3.267426
-0.726829 -0.177903 3.265475
-0.714272 -0.177956 3.266443
-0.700695 -0.177752 3.262696
-0.688075 -0.177788 3.263347
-0.674921 -0.177684 3.261442
-0.662220 -0.177698 3.261700
-0.649129 -0.177605 3.260004
-0.636850 -0.177736 3.262400
-0.623421 -0.177544 3.258884
-0.611015 -0.177642 3.260681
-0.598095 -0.177592 3.259752
-0.585173 -0.177538 3.258775
-0.572793 -0.177651 3.260837
-0.559409 -0.177450 3.257147
-0.546941 -0.177537 3.258742
-0.534529 -0.177646 3.260757
-0.522094 -0.177754 3.262724
-0.509615 -0.177851 3.264510
-0.496670 -0.177787 3.263329
-0.484010 -0.177823 3.264002
-0.471209 -0.177809 3.263739
-0.458690 -0.177903 3.265464
-0.446151 -0.177994 3.267141
-0.433361 -0.177988 3.267028
-0.420606 -0.177996 3.267179
-0.407623 -0.177906 3.265516
-0.395033 -0.177986 3.266993
-0.382426 -0.178064 3.268420
-0.371016 -0.178724 3.280535
-0.361841 -0.180547 3.313991
-0.349247 -0.180735 3.317451
-0.336402 -0.180803 3.318695
-0.323542 -0.180868 3.319889
-0.310613 -0.180899 3.320456
-0.297444 -0.180786 3.318377
-0.284530 -0.180825 3.319099
-0.271436 -0.180747 3.317674
-0.258536 -0.180798 3.318606
-0.245625 -0.180846 3.319486
-0.232703 -0.180891 3.320315
-0.219771 -0.180933 3.321091
-0.206818 -0.180962 3.321609
-0.193780 -0.180915 3.320755
-0.180719 -0.180838 3.319345
-0.167694 -0.180789 3.318440
-0.154684 -0.180749 3.317700
-0.141731 -0.180774 3.318163
-0.128772 -0.180796 3.318569
-0.115809 -0.180815 3.318925
-0.102840 -0.180832 3.319227
-0.089869 -0.180845 3.319476
-0.076893 -0.180856 3.319672
-0.063916 -0.180864 3.319815
-0.050936 -0.180869 3.319905
-0.037955 -0.180871 3.319942
-0.024974 -0.180870 3.319926
-0.011993 -0.180882 3.320146
0.000990 -0.181012 3.322540
0.013996 -0.181203 3.326048
0.026999 -0.181191 3.325819
0.040000 -0.181176 3.325537
0.053060 -0.181367 3.329046
0.066115 -0.181473 3.330998
0.079137 -0.181466 3.330873
0.092148 -0.181439 3.330379
0.105036 -0.181209 3.326140
0.117921 -0.181023 3.322736
0.130314 -0.180194 3.307524
0.139238 -0.175151 3.214962
0.144275 -0.166459 3.055410
0.148359 -0.158081 2.901622
0.151575 -0.150034 2.753913
0.154658 -0.142931 2.623543
0.157243 -0.136281 2.501486
0.164416 -0.134153 2.462421
0.173442 -0.133688 2.453889
0.182975 -0.133643 2.453061
0.192499 -0.133596 2.452194
0.202012 -0.133547 2.451290
0.211549 -0.133516 2.450729
0.221087 -0.133489 2.450229
0.230750 -0.133537 2.451110
0.240309 -0.133523 2.450850
0.249943 -0.133550 2.451353
0.259409 -0.133488 2.450222
0.268986 -0.133487 2.450188
0.278574 -0.133490 2.450260
0.288169 -0.133497 2.450377
0.297720 -0.133483 2.450130
0.307162 -0.133423 2.449027
0.316840 -0.133466 2.449812
0.326487 -0.133494 2.450325
0.336204 -0.133548 2.451311
0.345694 -0.133511 2.450640
0.355359 -0.133542 2.451207
0.364771 -0.133479 2.450052
0.374418 -0.133503 2.450490
0.384125 -0.133547 2.451289
0.393833 -0.133588 2.452055
0.403533 -0.133625 2.452735
0.412907 -0.133555 2.451452
0.422543 -0.133571 2.451747
0.432222 -0.133600 2.452266
0.441913 -0.133631 2.452838
0.450999 -0.133481 2.450094
0.459233 -0.133091 2.442934
0.468078 -0.132890 2.439247
0.477547 -0.132871 2.438895
0.488061 -0.133138 2.443792
0.498734 -0.133437 2.449278
0.508931 -0.133600 2.452265
0.517897 -0.133439 2.449322
0.525964 -0.133057 2.442307
0.533800 -0.132631 2.434490
0.542886 -0.132526 2.432550
0.552439 -0.132535 2.432731
0.563019 -0.132787 2.437357
0.574850 -0.133321 2.447150
0.585613 -0.133593 2.452151
0.595819 -0.133732 2.454693
0.606025 -0.133866 2.457158
0.616083 -0.133964 2.458958
0.625897 -0.134007 2.459739
0.635975 -0.134104 2.461520
0.645765 -0.134138 2.462149
0.655381 -0.134136 2.462105
0.665415 -0.134218 2.463611
0.675245 -0.134257 2.464331
0.684843 -0.134250 2.464195
0.694737 -0.134300 2.465113
0.704698 -0.134361 2.466240
0.714974 -0.134480 2.468423
0.724734 -0.134500 2.468792
0.734833 -0.134582 2.470292
0.744529 -0.134588 2.470412
0.754687 -0.134677 2.472044
0.764237 -0.134657 2.471671
0.774532 -0.134767 2.473683
0.784084 -0.134746 2.473304
0.793591 -0.134718 2.472792
0.803832 -0.134814 2.474554
0.813393 -0.134795 2.474204
0.823452 -0.134858 2.475361
0.832907 -0.134822 2.474694
0.842347 -0.134784 2.474000
0.851772 -0.134745 2.473279
0.861270 -0.134717 2.472781
0.870660 -0.134674 2.471989
0.881277 -0.134820 2.474663
0.891922 -0.134966 2.477352
0.907706 -0.135879 2.494104
0.903836 -0.133862 2.457073
0.405715 -0.059456 1.091333
0.301408 -0.043710 0.802320
0.303020 -0.043492 0.798302
0.303555 -0.043124 0.791555
0.304379 -0.042805 0.785694
0.305094 -0.042476 0.779669
0.306393 -0.042235 0.775244
0.306067 -0.041777 0.766831
-0.293889 -0.034877 0.690031
-0.292778 -0.035067 0.693793
-0.291078 -0.035190 0.696215
-0.290417 -0.035441 0.701191
-0.289304 -0.035642 0.705160
-0.288799 -0.035922 0.710703
-0.288716 -0.036261 0.717402
-0.288409 -0.036578 0.723671
-0.288083 -0.036898 0.730015
-0.288013 -0.037258 0.737142
-0.288076 -0.037643 0.744757
-0.287876 -0.038001 0.751839
-0.287973 -0.038406 0.759854
-0.289302 -0.038986 0.771317
-0.289106 -0.039370 0.778914
-0.292721 -0.040287 0.797052
-0.991375 -0.137909 2.728468
-1.180598 -0.166018 3.284596
-1.156507 -0.164419 3.252959
-1.144699 -0.164550 3.255553
-1.132864 -0.164680 3.258126
-1.119258 -0.164553 3.255604
-1.105712 -0.164432 3.253205
-1.093292 -0.164477 3.254098
-1.080746 -0.164504 3.254635
-1.068037 -0.164506 3.254688
-1.055709 -0.164569 3.255916
-1.043024 -0.164576 3.256059
-1.030604 -0.164626 3.257044
-1.018644 -0.164751 3.259524
-1.005433 -0.164675 3.258017
-0.992396 -0.164625 3.257040
-0.979840 -0.164655 3.257634
-0.966740 -0.164594 3.256415
-0.954969 -0.164760 3.259699
-0.941690 -0.164667 3.257854
-0.929617 -0.164784 3.260187
-0.916242 -0.164672 3.257960
-0.904211 -0.164801 3.260511
-0.891618 -0.164830 3.261083
-0.878768 -0.164811 3.260715
-0.866855 -0.164971 3.263868
-0.853380 -0.164833 3.261141
-0.841306 -0.164966 3.263770
-0.828600 -0.164977 3.263991
-0.815691 -0.164947 3.263407
-0.803667 -0.165098 3.266397
-0.790794 -0.165077 3.265982
-0.778017 -0.165076 3.265954
-0.765710 -0.165176 3.267932
-0.752381 -0.165055 3.265538
-0.739915 -0.165122 3.266875
-0.726635 -0.165008 3.264605
-0.714044 -0.165048 3.265398
-0.700822 -0.164941 3.263284
-0.688199 -0.164974 3.263935
-0.675043 -0.164878 3.262031
-0.662340 -0.164891 3.262290
-0.649247 -0.164805 3.260594
-0.636965 -0.164926 3.262992
-0.623534 -0.164748 3.259475
-0.611126 -0.164839 3.261274
-0.597657 -0.164642 3.257366
-0.585280 -0.164743 3.259370
-0.572435 -0.164714 3.258800
-0.559431 -0.164637 3.257275
-0.547041 -0.164742 3.259338
-0.534627 -0.164843 3.261354
-0.522190 -0.164943 3.263323
-0.509616 -0.165003 3.264520
-0.496632 -0.164931 3.263077
-0.483842 -0.164920 3.262865
-0.471296 -0.164994 3.264340
-0.458775 -0.165082 3.266067
-0.446233 -0.165166 3.267744
-0.433475 -0.165174 3.267890
-0.420684 -0.165168 3.267784
-0.407699 -0.165084 3.266121
-0.395106 -0.165159 3.267599
-0.382497 -0.165231 3.269027
-0.371394 -0.165982 3.283880
-0.362018 -0.167586 3.315609
-0.349904 -0.167994 3.323689
-0.336485 -0.167783 3.319516
-0.323602 -0.167833 3.320507
-0.310725 -0.167891 3.321650
-0.297836 -0.167947 3.322756
-0.284892 -0.167975 3.323318
-0.271752 -0.167885 3.321536
-0.258754 -0.167879 3.321413
-0.245670 -0.167813 3.320107
-0.232747 -0.167855 3.320936
-0.219813 -0.167894 3.321713
-0.206869 -0.167931 3.322437
-0.193917 -0.167965 3.323109
-0.180944 -0.167984 3.323493
-0.167826 -0.167861 3.321050
-0.154766 -0.167781 3.319464
-0.141757 -0.167746 3.318786
-0.128796 -0.167767 3.319192
-0.115830 -0.167785 3.319548
-0.102860 -0.167800 3.319850
-0.089885 -0.167813 3.320099
-0.076908 -0.167823 3.320295
-0.063928 -0.167830 3.320439
-0.050946 -0.167834 3.320529
-0.037963 -0.167836 3.320566
-0.024999 -0.167975 3.323317
-0.012016 -0.168136 3.326494
0.000991 -0.168154 3.326849
0.013999 -0.168145 3.326673
0.027004 -0.168133 3.326444
0.040043 -0.168266 3.329075
0.053107 -0.168415 3.332015
0.066134 -0.168411 3.331940
0.079152 -0.168389 3.331497
0.092165 -0.168364 3.331003
0.105110 -0.168236 3.328478
0.117943 -0.167977 3.323359
0.130191 -0.167020 3.304411
0.139037 -0.162264 3.210318
0.144205 -0.154360 3.053936
0.148387 -0.146688 2.902164
0.151825 -0.139425 2.758469
0.154945 -0.132852 2.628422
0.157427 -0.126584 2.504400
0.164453 -0.124490 2.462973
0.173474 -0.124053 2.454342
0.183001 -0.124007 2.453417
0.192374 -0.123865 2.450609
0.201882 -0.123819 2.449705
0.211349 -0.123754 2.448412
0.220842 -0.123708 2.447516
0.230395 -0.123699 2.447333
0.240003 -0.123720 2.447735
0.249499 -0.123682 2.446994
0.258947 -0.123625 2.445864
0.268607 -0.123669 2.446736
0.278079 -0.123627 2.445901
0.287633 -0.123623 2.445819
0.297191 -0.123620 2.445771
0.306753 -0.123620 2.445767
0.316263 -0.123599 2.445350
0.325859 -0.123612 2.445606
0.335342 -0.123583 2.445026
0.344983 -0.123611 2.445598
0.354691 -0.123662 2.446600
0.364065 -0.123597 2.445308
0.373749 -0.123637 2.446109
0.383438 -0.123678 2.446908
0.393075 -0.123699 2.447333
0.402466 -0.123644 2.446249
0.412098 -0.123665 2.446650
0.421775 -0.123697 2.447290
0.431451 -0.123728 2.447895
0.441244 -0.123790 2.449124
0.450774 -0.123777 2.448870
0.459316 -0.123499 2.443375
0.468417 -0.123380 2.441010
0.478099 -0.123415 2.441716
0.488453 -0.123619 2.445751
0.498854 -0.123827 2.449867
0.509194 -0.124013 2.453535
0.518292 -0.123894 2.451190
0.526168 -0.123493 2.443257
0.534052 -0.123108 2.435641
0.542996 -0.122977 2.433042
0.553026 -0.123092 2.435318
0.563119 -0.123217 2.437788
0.575505 -0.123831 2.449935
0.586190 -0.124065 2.454566
0.595923 -0.124093 2.455125
0.606143 -0.124220 2.457637
0.616375 -0.124345 2.460120
0.626414 -0.124429 2.461770
0.636252 -0.124470 2.462591
0.645877 -0.124470 2.462578
0.655904 -0.124545 2.464071
0.665753 -0.124585 2.464864
0.675668 -0.124636 2.465877
0.685294 -0.124634 2.465819
0.695230 -0.124686 2.466862
0.704819 -0.124676 2.466664
0.715096 -0.124787 2.468847
0.725310 -0.124883 2.470757
0.734959 -0.124881 2.470714
0.745252 -0.124987 2.472811
0.754815 -0.124969 2.472465
0.765017 -0.125057 2.474194
0.774663 -0.125052 2.474102
0.784220 -0.125034 2.473732
0.794483 -0.125127 2.475574
0.804021 -0.125104 2.475136
0.814129 -0.125171 2.476443
0.823828 -0.125173 2.476491
0.833148 -0.125118 2.475411
0.842584 -0.125082 2.474697
0.852006 -0.125045 2.473957
0.861665 -0.125043 2.473915
0.871142 -0.125015 2.473360
0.881423 -0.125101 2.475070
0.892945 -0.125360 2.480195
0.908135 -0.126123 2.495286
0.942307 -0.129478 2.561657
0.369893 -0.050290 0.994975
0.302046 -0.040639 0.804019
0.303500 -0.040414 0.799567
0.303604 -0.040015 0.791683
0.304338 -0.039707 0.785588
0.305143 -0.039414 0.779795
0.306530 -0.039202 0.775589
0.306133 -0.038768 0.766999
-0.293939 -0.032167 0.690148
-0.292826 -0.032342 0.693906
-0.291121 -0.032455 0.696317
-0.290466 -0.032687 0.701309
-0.289445 -0.032883 0.705504
-0.288842 -0.033130 0.710809
-0.288758 -0.033442 0.717508
-0.288478 -0.033738 0.723844
-0.287938 -0.034008 0.729649
-0.287797 -0.034332 0.736589
-0.287869 -0.034687 0.744221
-0.287881 -0.035043 0.751851
-0.287934 -0.035411 0.759750
-0.289346 -0.035956 0.771434
-0.290100 -0.036429 0.781593
-0.293157 -0.037205 0.798238
-0.933928 -0.119802 2.570364
-1.179834 -0.152992 3.282473
-1.152359 -0.151073 3.241292
-1.144623 -0.151727 3.255335
-1.133039 -0.151881 3.258627
-1.119433 -0.151764 3.256113
-1.105883 -0.151652 3.253708
-1.093305 -0.151672 3.254136
-1.080914 -0.151718 3.255141
-1.068204 -0.151721 3.255195
-1.055874 -0.151778 3.256425
-1.043038 -0.151763 3.256102
-1.030766 -0.151831 3.257555
-1.017810 -0.151798 3.256855
-1.005229 -0.151822 3.257355
-0.992044 -0.151753 3.255882
-0.979922 -0.151847 3.257906
-0.966833 -0.151792 3.256730
-0.955121 -0.151955 3.260218
-0.941840 -0.151869 3.258373
-0.929765 -0.151978 3.260708
-0.916577 -0.151905 3.259151
-0.904356 -0.151993 3.261034
-0.891761 -0.152020 3.261607
-0.878896 -0.152000 3.261192
-0.866995 -0.152150 3.264395
-0.853396 -0.152001 3.261204
-0.841409 -0.152139 3.264171
-0.827916 -0.152005 3.261297
-0.815824 -0.152128 3.263938
-0.803655 -0.152241 3.266349
-0.790294 -0.152127 3.263917
-0.778144 -0.152247 3.266487
-0.765800 -0.152332 3.268315
-0.752436 -0.152214 3.265779
-0.739992 -0.152281 3.267216
-0.726699 -0.152173 3.264891
-0.714162 -0.152222 3.265936
-0.700937 -0.152123 3.263822
-0.688313 -0.152153 3.264475
-0.675154 -0.152065 3.262571
-0.661804 -0.151928 3.259646
-0.649355 -0.151998 3.261136
-0.637071 -0.152110 3.263535
-0.623638 -0.151946 3.260018
-0.611228 -0.152030 3.261819
-0.597757 -0.151847 3.257910
-0.585378 -0.151941 3.259915
-0.572434 -0.151889 3.258795
-0.559525 -0.151843 3.257822
-0.547133 -0.151940 3.259886
-0.534717 -0.152034 3.261903
-0.522278 -0.152125 3.263873
-0.509318 -0.152066 3.262608
-0.496405 -0.152019 3.261588
-0.483879 -0.152090 3.263117
-0.471376 -0.152173 3.264893
-0.458852 -0.152253 3.266619
-0.446309 -0.152332 3.268298
-0.433514 -0.152326 3.268187
-0.420722 -0.152322 3.268083
-0.407768 -0.152256 3.266676
-0.395173 -0.152325 3.268155
-0.382562 -0.152392 3.269584
-0.371433 -0.153074 3.284224
-0.362383 -0.154693 3.318952
-0.350019 -0.154964 3.324785
-0.336851 -0.154887 3.323124
-0.323657 -0.154791 3.321075
-0.310778 -0.154845 3.322218
-0.297887 -0.154896 3.323325
-0.284982 -0.154945 3.324364
-0.271991 -0.154949 3.324457
-0.258881 -0.154883 3.323040
-0.245713 -0.154773 3.320677
-0.232786 -0.154812 3.321506
-0.219850 -0.154848 3.322283
-0.206905 -0.154882 3.323008
-0.193951 -0.154913 3.323680
-0.180988 -0.154942 3.324300
-0.168019 -0.154968 3.324867
-0.154945 -0.154895 3.323295
-0.141909 -0.154850 3.322324
-0.128927 -0.154861 3.322571
-0.115948 -0.154878 3.322928
-0.102964 -0.154892 3.323230
-0.089977 -0.154904 3.323479
-0.076986 -0.154913 3.323676
-0.063993 -0.154919 3.323819
-0.050998 -0.154924 3.323910
-0.038007 -0.154947 3.324416
-0.025029 -0.155077 3.327204
-0.012020 -0.155093 3.327544
0.000991 -0.155087 3.327422
0.014013 -0.155214 3.330148
0.027053 -0.155319 3.332387
0.040089 -0.155344 3.332930
0.053121 -0.155343 3.332903
0.066145 -0.155325 3.332513
0.079195 -0.155361 3.333300
0.092265 -0.155423 3.334620
0.105183 -0.155245 3.330797
0.118012 -0.154988 3.325301
0.130202 -0.154027 3.304683
0.138918 -0.149502 3.207582
0.144230 -0.142365 3.054461
0.148412 -0.135290 2.902662
0.151893 -0.128627 2.759706
0.155258 -0.122755 2.633729
0.157470 -0.116759 2.505092
0.164475 -0.114812 2.463303
0.173334 -0.114302 2.452371
0.182862 -0.114264 2.451542
0.192379 -0.114223 2.450676
0.201863 -0.114167 2.449474
0.211179 -0.114026 2.446439
0.220656 -0.113980 2.445461
0.230346 -0.114043 2.446817
0.240044 -0.114106 2.448152
0.249505 -0.114055 2.447059
0.258954 -0.114002 2.445929
0.268498 -0.113993 2.445742
0.278086 -0.114004 2.445965
0.287526 -0.113954 2.444906
0.297198 -0.113997 2.445834
0.306592 -0.113934 2.444479
0.316005 -0.113882 2.443355
0.325661 -0.113918 2.444125
0.335286 -0.113941 2.444619
0.344743 -0.113907 2.443898
0.354388 -0.113936 2.444514
0.364071 -0.113975 2.445350
0.373760 -0.114014 2.446182
0.383448 -0.114050 2.446966
0.392785 -0.113983 2.445531
0.402437 -0.114009 2.446075
0.412108 -0.114038 2.446707
0.421785 -0.114068 2.447346
0.431461 -0.114096 2.447951
0.441135 -0.114123 2.448520
0.450427 -0.114051 2.446985
0.459580 -0.113948 2.444775
0.468737 -0.113851 2.442682
0.478583 -0.113921 2.444184
0.488783 -0.114071 2.447403
0.499398 -0.114310 2.452537
0.509603 -0.114448 2.455503
0.518561 -0.114306 2.452459
0.526606 -0.113972 2.445290
0.534155 -0.113544 2.436110
0.543084 -0.113420 2.433439
0.553116 -0.113526 2.435714
0.563210 -0.113641 2.438184
0.575598 -0.114207 2.450332
0.586381 -0.114442 2.455367
0.596484 -0.114538 2.457436
0.606241 -0.114566 2.458033
0.616474 -0.114682 2.460515
0.626701 -0.114793 2.462897
0.636354 -0.114797 2.462986
0.646585 -0.114904 2.465276
0.656240 -0.114906 2.465333
0.666192 -0.114960 2.466490
0.676089 -0.115003 2.467411
0.685739 -0.115004 2.467420
0.695605 -0.115040 2.468191
0.705564 -0.115090 2.469271
0.715424 -0.115123 2.469979
0.725496 -0.115189 2.471389
0.735721 -0.115277 2.473276
0.745368 -0.115273 2.473198
0.755588 -0.115357 2.474996
0.765233 -0.115352 2.474891
0.775438 -0.115430 2.476579
0.785088 -0.115425 2.476470
0.794623 -0.115404 2.476007
0.804778 -0.115472 2.477468
0.814449 -0.115470 2.477417
0.823954 -0.115444 2.476871
0.833446 -0.115417 2.476297
0.842896 -0.115385 2.475613
0.852389 -0.115360 2.475069
0.862311 -0.115393 2.475772
0.872080 -0.115405 2.476022
0.882417 -0.115490 2.477863
0.893526 -0.115674 2.481807
0.911691 -0.116758 2.505056
0.966258 -0.122431 2.626766
