ply
format ascii 1.0
comment generated by convert_depth_to_ply.py
element vertex 1677
property float x
property float y
property float z
end_header
-1.663147 -1.120060 3.397180
-1.660371 -1.125773 3.414507
-1.657661 -1.131609 3.432207
-1.654608 -1.137289 3.449435
-1.650715 -1.142467 3.465142
-1.647617 -1.148271 3.482744
-1.644577 -1.154197 3.500717
-1.641416 -1.160122 3.518687
-1.639226 -1.166822 3.539008
-1.635889 -1.172795 3.557127
-1.632404 -1.178748 3.575182
-1.628890 -1.184767 3.593436
-1.625234 -1.190770 3.611644
-1.621540 -1.196833 3.630034
-1.617710 -1.202886 3.648392
-1.613834 -1.208994 3.666917
-1.609827 -1.215096 3.685426
-1.605765 -1.221249 3.704088
-1.601579 -1.227401 3.722747
-1.597515 -1.233743 3.741982
-1.593422 -1.240160 3.761446
-1.589644 -1.246926 3.781967
-1.585971 -1.253881 3.803061
-1.581329 -1.260175 3.822154
-1.577085 -1.266890 3.842519
-1.572821 -1.273697 3.863167
-1.567876 -1.280060 3.882465
-1.562835 -1.286448 3.901840
-1.558146 -1.293236 3.922426
-1.554206 -1.300762 3.945254
-1.549073 -1.307410 3.965416
-1.544676 -1.314797 3.987823
-1.539126 -1.321320 4.007608
-1.533714 -1.328077 4.028102
-1.529194 -1.335731 4.051315
-1.524448 -1.343320 4.074335
-1.518821 -1.350261 4.095386
-1.513875 -1.357937 4.118669
-1.508437 -1.365308 4.141025
-1.503206 -1.373001 4.164359
-1.497012 -1.379950 4.185433
-1.491985 -1.388113 4.210193
-1.486119 -1.395641 4.233027
-1.479711 -1.402798 4.254734
-1.473925 -1.410689 4.278666
-1.468416 -1.418998 4.303869
-1.461513 -1.426110 4.325439
-1.454638 -1.433390 4.347519
-1.447013 -1.440068 4.367774
-1.434590 -1.442058 4.373808
-1.418806 -1.440675 4.369616
-1.402918 -1.439157 4.365012
-1.386963 -1.437538 4.360100
-1.371118 -1.436001 4.355438
-1.355273 -1.434430 4.350674
-1.340719 -1.434207 4.349998
-1.325176 -1.432911 4.346066
-1.310243 -1.432252 4.344067
-1.294886 -1.431111 4.340607
-1.280021 -1.430494 4.338734
-1.265346 -1.430076 4.337469
-1.249728 -1.428573 4.332908
-1.235163 -1.428252 4.331935
-1.219812 -1.427004 4.328149
-1.204889 -1.426233 4.325811
-1.189609 -1.425015 4.322118
-1.175054 -1.424647 4.321002
-1.160234 -1.423946 4.318874
-1.145679 -1.423555 4.317688
-1.131187 -1.423234 4.316716
-1.115555 -1.421453 4.311314
-1.100344 -1.420168 4.307417
-1.085798 -1.419720 4.306058
-1.071006 -1.418934 4.303675
-1.056480 -1.418484 4.302309
-1.041263 -1.417081 4.298054
-1.026507 -1.416276 4.295612
-1.011985 -1.415775 4.294093
-0.996909 -1.414475 4.290150
-0.982199 -1.413663 4.287686
-0.967861 -1.413372 4.286804
-0.953277 -1.412707 4.284787
-0.938644 -1.411948 4.282485
-0.924234 -1.411506 4.281143
-0.909227 -1.410125 4.276957
-0.894783 -1.409588 4.275326
-0.880148 -1.408728 4.272717
-0.865567 -1.407926 4.270287
-0.851135 -1.407345 4.268524
-0.836639 -1.406638 4.266380
-0.822214 -1.406027 4.264526
-0.807244 -1.404448 4.259736
-0.792835 -1.403804 4.257784
-0.778460 -1.403199 4.255949
-0.763897 -1.402228 4.253004
-0.749698 -1.401900 4.252010
-0.735143 -1.400880 4.248916
-0.720963 -1.400551 4.247919
-0.706341 -1.399334 4.244226
-0.691989 -1.398611 4.242034
-0.677645 -1.397876 4.239804
-0.663392 -1.397302 4.238063
-0.649067 -1.396546 4.235772
-0.635049 -1.396434 4.235431
-0.620079 -1.394176 4.228581
-0.604291 -1.389933 4.215713
-0.589471 -1.387769 4.209148
-0.575534 -1.387630 4.208726
-0.561874 -1.388168 4.210359
-0.547738 -1.387528 4.208418
-0.533533 -1.386675 4.205831
-0.519783 -1.386988 4.206782
-0.506863 -1.389597 4.214694
-0.494865 -1.394953 4.230939
-0.482360 -1.399146 4.243656
-0.469358 -1.402107 4.252635
-0.456321 -1.405140 4.261837
-0.443272 -1.408329 4.271510
-0.430157 -1.411512 4.281162
-0.417097 -1.415098 4.292040
-0.403862 -1.418320 4.301812
-0.389598 -1.418033 4.300940
-0.375429 -1.418078 4.301078
-0.360982 -1.417039 4.297926
-0.346790 -1.416959 4.297683
-0.332527 -1.416568 4.296497
-0.318115 -1.415476 4.293185
-0.303900 -1.415204 4.292359
-0.289583 -1.414406 4.289940
-0.275261 -1.413502 4.287197
-0.261055 -1.413123 4.286050
-0.246736 -1.412057 4.282816
-0.232422 -1.410893 4.279284
-0.218155 -1.409882 4.276217
-0.203859 -1.408525 4.272102
-0.189787 -1.408636 4.272440
-0.175450 -1.406643 4.266394
-0.161332 -1.406199 4.265047
-0.147143 -1.405006 4.261428
-0.132973 -1.403749 4.257618
-0.118939 -1.403817 4.257822
-0.104740 -1.401675 4.251326
-0.090695 -1.401273 4.250106
-0.076633 -1.400397 4.247449
-0.062568 -1.399049 4.243363
-0.048562 -1.398666 4.242200
-0.034551 -1.397738 4.239386
-0.020552 -1.396372 4.235243
-0.006585 -1.395963 4.234003
0.007371 -1.394948 4.230925
0.021295 -1.393188 4.225585
0.035227 -1.393141 4.225444
0.049121 -1.392036 4.222090
0.062963 -1.390289 4.216791
0.076863 -1.390201 4.216524
0.090695 -1.389103 4.213196
0.104479 -1.387674 4.208860
0.118312 -1.387141 4.207246
0.132172 -1.386999 4.206813
0.145920 -1.385829 4.203266
0.159603 -1.384302 4.198632
0.173383 -1.383783 4.197060
0.187171 -1.383405 4.195913
0.200825 -1.382152 4.192112
0.214432 -1.380766 4.187909
0.228150 -1.380214 4.186235
0.241687 -1.378693 4.181620
0.255163 -1.377007 4.176507
0.268880 -1.376729 4.175665
0.282319 -1.375120 4.170785
0.295712 -1.373449 4.165715
0.309376 -1.373132 4.164753
0.322710 -1.371437 4.159613
0.336019 -1.369780 4.154587
0.349627 -1.369423 4.153506
0.362976 -1.368114 4.149536
0.376146 -1.366252 4.143887
0.389625 -1.365605 4.141926
0.402838 -1.364098 4.137355
0.415944 -1.362341 4.132026
0.429357 -1.361671 4.129994
0.442286 -1.359554 4.123571
0.454368 -1.355036 4.109868
0.465082 -1.346816 4.084939
0.476238 -1.340305 4.065190
0.487620 -1.334770 4.048401
0.498672 -1.328649 4.029836
0.508511 -1.319698 4.002687
0.519974 -1.315309 3.989375
0.532214 -1.313052 3.982532
0.545046 -1.312330 3.980340
0.557935 -1.311775 3.978657
0.570807 -1.311208 3.976938
0.583333 -1.309890 3.972939
0.596257 -1.309502 3.971762
0.610271 -1.311474 3.977743
0.625540 -1.316004 3.991484
0.640717 -1.320155 4.004075
0.647174 -1.306538 3.962772
0.629083 -1.244880 3.775763
0.638632 -1.239250 3.758687
0.650944 -1.239094 3.758213
0.663183 -1.238808 3.757345
0.676534 -1.240572 3.762695
0.690737 -1.243806 3.772504
0.705407 -1.247751 3.784470
0.717781 -1.247569 3.783917
0.726095 -1.240457 3.762346
0.733601 -1.232228 3.737387
0.743907 -1.228894 3.727276
0.755527 -1.227804 3.723970
0.767987 -1.228093 3.724848
0.779599 -1.227039 3.721651
0.789817 -1.223856 3.711997
0.800394 -1.221319 3.704301
0.811006 -1.218910 3.696995
0.821129 -1.215850 3.687712
0.831918 -1.213849 3.681644
0.842571 -1.211712 3.675162
0.852527 -1.208646 3.665862
0.863399 -1.206946 3.660708
0.873749 -1.204574 3.653512
0.884561 -1.202894 3.648417
0.894847 -1.200554 3.641320
0.906140 -1.199610 3.638456
0.933500 -1.219681 3.699334
0.952095 -1.227932 3.724358
0.964876 -1.228569 3.726289
0.981544 -1.234077 3.742997
0.996439 -1.237248 3.752613
1.012150 -1.241340 3.765025
1.032543 -1.251006 3.794343
1.048203 -1.254775 3.805775
1.059887 -1.253752 3.802671
1.072980 -1.254400 3.804638
1.085969 -1.254913 3.806193
1.097564 -1.253821 3.802880
1.107730 -1.251140 3.794749
1.120585 -1.251523 3.795909
1.133178 -1.251608 3.796167
1.146887 -1.252909 3.800116
1.158546 -1.251968 3.797259
1.171952 -1.252913 3.800127
1.183943 -1.252342 3.798396
1.196719 -1.252605 3.799194
1.208345 -1.251672 3.796363
1.220443 -1.251241 3.795056
1.231828 -1.250096 3.791582
1.243223 -1.248983 3.788208
1.254548 -1.247823 3.784690
1.263790 -1.244635 3.775019
1.258936 -1.227762 3.723844
1.249183 -1.206483 3.659302
1.253590 -1.199157 3.637082
1.263532 -1.197214 3.631189
1.274272 -1.196056 3.627676
1.286211 -1.196034 3.627611
1.297429 -1.195350 3.625535
1.307272 -1.193421 3.619686
1.316539 -1.191007 3.612365
1.326419 -1.189186 3.606841
1.337462 -1.188431 3.604551
1.349139 -1.188247 3.603993
1.360417 -1.187718 3.602389
1.371057 -1.186647 3.599139
1.379045 -1.183318 3.589042
1.385372 -1.178632 3.574830
1.408947 -1.188575 3.604989
1.434943 -1.200378 3.640787
1.436898 -1.192041 3.615500
1.426274 -1.173492 3.559239
1.415349 -1.154999 3.503150
1.410873 -1.142025 3.463799
1.404649 -1.127857 3.420827
1.398275 -1.113795 3.378177
1.391318 -1.099495 3.334803
1.384996 -1.085916 3.293619
1.378282 -1.072244 3.252152
1.371258 -1.058544 3.210598
1.364464 -1.045229 3.170215
1.357333 -1.031862 3.129672
1.350970 -1.019275 3.091494
1.343741 -1.006228 3.051923
1.336356 -0.993259 3.012589
1.330079 -0.981300 2.976315
1.324160 -0.969777 2.941367
1.316756 -0.957343 2.903652
1.311447 -0.946600 2.871070
1.304568 -0.934886 2.835541
1.298986 -0.924262 2.803317
1.293595 -0.913923 2.771958
1.286437 -0.902489 2.737278
1.272080 -0.886199 2.687870
1.261160 -0.872512 2.646358
1.255590 -0.862690 2.616566
1.252037 -0.854378 2.591356
1.250284 -0.847398 2.570187
1.253051 -0.843556 2.558532
1.257378 -0.840808 2.550198
1.261919 -0.838238 2.542405
1.262733 -0.833244 2.527256
1.260032 -0.826010 2.505317
1.255968 -0.817983 2.480970
1.250438 -0.809112 2.454062
1.244995 -0.800410 2.427669
1.238783 -0.791328 2.400125
1.235281 -0.784082 2.378146
-1.706328 -1.045949 3.204775
-1.699382 -1.048183 3.211620
-1.696005 -1.052659 3.225337
-1.693775 -1.057909 3.241422
-1.690702 -1.062696 3.256088
-1.686827 -1.067036 3.269387
-1.684380 -1.072342 3.285643
-1.682271 -1.077932 3.302772
-1.680109 -1.083561 3.320020
-1.677463 -1.088950 3.336531
-1.673863 -1.093787 3.351351
-1.669988 -1.098507 3.365813
-1.666995 -1.103875 3.382260
-1.664448 -1.109611 3.399837
-1.660485 -1.114476 3.414742
-1.657344 -1.119962 3.431551
-1.653343 -1.124939 3.446800
-1.650266 -1.130617 3.464198
-1.647374 -1.136502 3.482230
-1.644228 -1.142294 3.499975
-1.641071 -1.148159 3.517948
-1.638931 -1.154825 3.538371
-1.636026 -1.161043 3.557424
-1.632883 -1.167182 3.576232
-1.630197 -1.173738 3.596320
-1.626541 -1.179687 3.614548
-1.622847 -1.185696 3.632960
-1.619017 -1.191694 3.651339
-1.615140 -1.197748 3.669886
-1.611133 -1.203795 3.688416
-1.607071 -1.209893 3.707100
-1.602884 -1.215990 3.725781
-1.598633 -1.222133 3.744601
-1.594263 -1.228279 3.763433
-1.589821 -1.234465 3.782387
-1.585265 -1.240661 3.801370
-1.580629 -1.246891 3.820461
-1.576297 -1.253464 3.840599
-1.571463 -1.259740 3.859830
-1.567846 -1.267103 3.882391
-1.563579 -1.274057 3.903698
-1.558991 -1.280864 3.924554
-1.553746 -1.287239 3.944087
-1.548406 -1.293643 3.963708
-1.543358 -1.300403 3.984419
-1.539317 -1.308134 4.008107
-1.534747 -1.315545 4.030814
-1.529226 -1.322263 4.051399
-1.524230 -1.329558 4.073751
-1.519689 -1.337383 4.097728
-1.514065 -1.344387 4.119187
-1.508203 -1.351304 4.140380
-1.503274 -1.359192 4.164549
-1.497999 -1.366909 4.188194
-1.491774 -1.373894 4.209598
-1.485927 -1.381362 4.232479
-1.480666 -1.389523 4.257482
-1.474039 -1.396544 4.278996
-1.468234 -1.404488 4.303337
-1.461629 -1.411814 4.325784
-1.455320 -1.419574 4.349559
-1.447374 -1.425875 4.368865
-1.434943 -1.427840 4.374887
-1.418946 -1.426261 4.370047
-1.403064 -1.424765 4.365465
-1.387113 -1.423168 4.360573
-1.372085 -1.422495 4.358510
-1.356241 -1.420952 4.353783
-1.340584 -1.419574 4.349561
-1.325879 -1.419186 4.348371
-1.310525 -1.418088 4.345005
-1.295550 -1.417378 4.342830
-1.280235 -1.416278 4.339459
-1.265332 -1.415613 4.337422
-1.250746 -1.415292 4.336439
-1.235051 -1.413694 4.331543
-1.220517 -1.413402 4.330649
-1.205949 -1.413065 4.329615
-1.190323 -1.411465 4.324713
-1.175764 -1.411106 4.323613
-1.161267 -1.410814 4.322720
-1.145602 -1.409078 4.317399
-1.131095 -1.408741 4.316366
-1.116543 -1.408338 4.315131
-1.101030 -1.406697 4.310104
-1.086460 -1.406233 4.308682
-1.071947 -1.405832 4.307455
-1.056495 -1.404172 4.302369
-1.041901 -1.403624 4.300690
-1.026752 -1.402302 4.296638
-1.011947 -1.401419 4.293932
-0.997428 -1.400913 4.292382
-0.982983 -1.400498 4.291111
-0.967883 -1.399124 4.286902
-0.953980 -1.399464 4.287943
-0.938758 -1.397852 4.283003
-0.924362 -1.397439 4.281738
-0.909851 -1.396837 4.279892
-0.895202 -1.396000 4.277328
-0.880748 -1.395445 4.275629
-0.865835 -1.394133 4.271609
-0.851404 -1.393567 4.269874
-0.836818 -1.392724 4.267292
-0.822168 -1.391743 4.264286
-0.807813 -1.391238 4.262738
-0.793336 -1.390500 4.260476
-0.778929 -1.389859 4.258514
-0.764168 -1.388552 4.254508
-0.750133 -1.388542 4.254477
-0.735412 -1.387235 4.250473
-0.721365 -1.387174 4.250288
-0.706689 -1.385878 4.246315
-0.692337 -1.385176 4.244164
-0.677888 -1.384249 4.241325
-0.663927 -1.384300 4.241481
-0.649329 -1.382995 4.237481
-0.635540 -1.383395 4.238707
-0.620051 -1.380029 4.228395
-0.604340 -1.376003 4.216059
-0.589728 -1.374348 4.210987
-0.576072 -1.374895 4.212664
-0.561644 -1.373581 4.208636
-0.547709 -1.373436 4.208193
-0.533962 -1.373769 4.209213
-0.520270 -1.374264 4.210729
-0.507124 -1.376266 4.216863
-0.495330 -1.382157 4.234914
-0.482673 -1.385910 4.246414
-0.469745 -1.389086 4.256146
-0.456750 -1.392253 4.265849
-0.443372 -1.394417 4.272479
-0.430214 -1.397437 4.281733
-0.417266 -1.401368 4.293777
-0.403919 -1.404188 4.302418
-0.389611 -1.403751 4.301079
-0.375338 -1.403412 4.300039
-0.361218 -1.403641 4.300739
-0.346870 -1.402966 4.298672
-0.332445 -1.401911 4.295439
-0.318267 -1.401844 4.295236
-0.303889 -1.400853 4.292198
-0.289566 -1.400034 4.289690
-0.275400 -1.399927 4.289361
-0.260914 -1.398091 4.283737
-0.246728 -1.397743 4.282669
-0.232464 -1.396889 4.280053
-0.218122 -1.395426 4.275570
-0.203920 -1.394714 4.273389
-0.189673 -1.393569 4.269880
-0.175549 -1.393214 4.268794
-0.161332 -1.391997 4.265065
-0.147139 -1.390768 4.261298
-0.133009 -1.389950 4.258793
-0.118858 -1.388687 4.254921
-0.104801 -1.388331 4.253831
-0.090632 -1.386144 4.247129
-0.076607 -1.385781 4.246019
-0.062608 -1.385815 4.246121
-0.048527 -1.383539 4.239147
-0.034540 -1.383173 4.238026
-0.020566 -1.383175 4.238033
-0.006585 -1.381808 4.233844
0.007368 -1.380455 4.229700
0.021315 -1.380423 4.229601
0.035233 -1.379319 4.226218
0.049108 -1.377623 4.221023
0.063023 -1.377550 4.220797
0.076879 -1.376445 4.217414
0.090690 -1.374997 4.212975
0.104548 -1.374559 4.211635
0.118425 -1.374431 4.211241
0.132279 -1.374100 4.210229
0.145912 -1.371757 4.203048
0.159716 -1.371284 4.201599
0.173525 -1.370927 4.200506
0.187056 -1.368589 4.193343
0.200800 -1.368022 4.191605
0.214587 -1.367800 4.190924
0.228190 -1.366505 4.186958
0.241666 -1.364647 4.181264
0.255405 -1.364385 4.180461
0.268873 -1.362781 4.175548
0.282305 -1.361160 4.170578
0.295991 -1.360858 4.169654
0.309356 -1.359169 4.164479
0.322705 -1.357561 4.159553
0.336336 -1.357221 4.158509
0.349591 -1.355446 4.153073
0.362920 -1.354083 4.148894
0.376431 -1.353474 4.147029
0.389675 -1.351981 4.142456
0.402816 -1.350245 4.137137
0.416263 -1.349612 4.135197
0.429633 -1.348781 4.132650
0.442448 -1.346308 4.125073
0.454546 -1.341871 4.111478
0.465262 -1.333726 4.086523
0.476620 -1.327829 4.068453
0.487936 -1.322139 4.051019
0.499139 -1.316457 4.033609
0.508804 -1.307118 4.004994
0.519952 -1.301965 3.989207
0.532638 -1.300822 3.985706
0.545555 -1.300284 3.984055
0.558455 -1.299733 3.982368
0.571339 -1.299170 3.980643
0.583700 -1.297471 3.975438
0.596875 -1.297616 3.975882
0.610838 -1.299430 3.981439
0.625886 -1.303429 3.993691
0.641903 -1.309238 4.011490
0.629977 -1.258970 3.857469
0.627264 -1.228740 3.764847
0.638080 -1.225670 3.755440
0.649697 -1.224226 3.751016
0.661363 -1.222927 3.747036
0.674289 -1.223963 3.750210
0.688639 -1.227499 3.761044
0.703963 -1.232616 3.776722
0.717794 -1.234987 3.783986
0.725723 -1.227295 3.760420
0.731627 -1.216495 3.727329
0.741804 -1.213039 3.716739
0.753445 -1.212051 3.713712
0.765388 -1.211571 3.712240
0.777579 -1.211494 3.712006
0.788724 -1.209815 3.706859
0.800054 -1.208466 3.702727
0.811032 -1.206634 3.697115
0.821874 -1.204658 3.691059
0.831932 -1.201605 3.681705
0.843334 -1.200555 3.678488
0.853298 -1.197516 3.669176
0.863949 -1.195513 3.663039
0.874494 -1.193420 3.656625
0.885078 -1.191437 3.650550
0.895621 -1.189453 3.644472
0.906954 -1.188556 3.641721
0.933019 -1.206737 3.697430
0.952816 -1.216446 3.727178
0.963691 -1.214663 3.721713
0.975767 -1.214420 3.720969
0.987813 -1.214145 3.720126
1.004305 -1.219274 3.735843
1.031753 -1.237420 3.791440
1.051348 -1.245825 3.817194
1.066549 -1.248886 3.826575
1.078304 -1.247888 3.823516
1.089745 -1.246554 3.819427
1.099892 -1.243786 3.810946
1.112413 -1.243735 3.810791
1.125104 -1.243875 3.811219
1.137885 -1.244108 3.811934
1.150551 -1.244213 3.812255
1.164020 -1.245174 3.815200
1.176977 -1.245573 3.816421
1.189443 -1.245449 3.816041
1.201492 -1.244896 3.814348
1.212984 -1.243783 3.810937
1.225153 -1.243380 3.809703
1.237788 -1.243454 3.809929
1.249236 -1.242345 3.806532
1.259772 -1.240360 3.800449
1.255609 -1.224085 3.750582
1.235798 -1.193020 3.655401
1.238577 -1.184154 3.628235
1.248286 -1.182019 3.621692
1.259044 -1.180908 3.618290
1.270651 -1.180607 3.617368
1.281812 -1.179901 3.615205
1.293916 -1.180069 3.615718
1.305186 -1.179479 3.613911
1.315755 -1.178273 3.610214
1.326389 -1.177145 3.606759
1.336893 -1.175924 3.603018
1.348243 -1.175461 3.601599
1.360560 -1.175842 3.602768
1.371090 -1.174686 3.599226
1.378507 -1.170905 3.587642
1.386040 -1.167287 3.576554
1.408726 -1.176383 3.604425
1.437209 -1.190127 3.646537
1.437547 -1.180530 3.617132
1.425492 -1.160998 3.557287
1.416062 -1.143906 3.504915
1.410086 -1.129857 3.461869
1.405376 -1.117040 3.422599
1.399015 -1.103125 3.379963
1.392051 -1.088960 3.336560
1.385140 -1.075056 3.293961
1.378058 -1.061238 3.251622
1.371032 -1.047676 3.210068
1.364198 -1.034467 3.169597
1.357066 -1.021236 3.129056
1.350427 -1.008572 3.090253
1.343861 -0.996151 3.052197
1.337428 -0.984014 3.015007
1.330106 -0.971405 2.976376
1.322979 -0.959123 2.938743
1.317560 -0.948250 2.905426
1.311209 -0.936866 2.870549
1.305314 -0.925970 2.837162
1.299724 -0.915443 2.804908
1.293619 -0.904706 2.772008
1.285254 -0.892549 2.734760
1.272780 -0.877728 2.689350
1.262148 -0.864374 2.648433
1.256572 -0.854642 2.618614
1.251350 -0.845282 2.589934
1.250658 -0.839088 2.570957
1.252586 -0.834723 2.557582
1.257227 -0.832213 2.549891
1.262563 -0.830193 2.543703
1.263340 -0.825222 2.528471
1.260207 -0.817779 2.505665
1.254572 -0.808819 2.478212
1.249304 -0.800210 2.451836
1.243824 -0.791578 2.425387
1.237326 -0.782412 2.397302
1.233806 -0.775234 2.375308
-1.707260 -1.035839 3.206526
-1.700293 -1.038041 3.213342
-1.696949 -1.042496 3.227133
-1.693878 -1.047175 3.241619
-1.690361 -1.051637 3.255431
-1.687764 -1.056732 3.271203
-1.685761 -1.062267 3.288336
-1.683653 -1.067807 3.305486
-1.680203 -1.072562 3.320207
-1.676102 -1.076962 3.333825
-1.673385 -1.082314 3.350394
-1.670998 -1.087953 3.367848
-1.668382 -1.093517 3.385073
-1.664534 -1.098343 3.400012
-1.660134 -1.102868 3.414021
-1.657113 -1.108377 3.431073
-1.654299 -1.114101 3.448792
-1.651316 -1.119789 3.466402
-1.648333 -1.125557 3.484257
-1.645188 -1.131295 3.502018
-1.642033 -1.137107 3.520009
-1.638722 -1.142893 3.537921
-1.635499 -1.148823 3.556279
-1.632296 -1.154854 3.574946
-1.629156 -1.161017 3.594024
-1.626727 -1.167780 3.614961
-1.622911 -1.173641 3.633103
-1.617628 -1.178520 3.648206
-1.614957 -1.185389 3.669470
-1.609757 -1.190491 3.685266
-1.606895 -1.197414 3.706694
-1.602858 -1.203560 3.725721
-1.598837 -1.209814 3.745079
-1.594470 -1.215900 3.763921
-1.591212 -1.222935 3.785697
-1.586655 -1.229075 3.804704
-1.582018 -1.235250 3.823818
-1.577272 -1.241438 3.842975
-1.572438 -1.247656 3.862225
-1.567500 -1.253894 3.881533
-1.562830 -1.260450 3.901829
-1.559041 -1.267832 3.924679
-1.554584 -1.274789 3.946216
-1.549786 -1.281582 3.967243
-1.544333 -1.287943 3.986936
-1.538993 -1.294509 4.007261
-1.534832 -1.302190 4.031037
-1.530364 -1.309741 4.054414
-1.524545 -1.316260 4.074594
-1.519560 -1.323621 4.097380
-1.515017 -1.331502 4.121777
-1.509174 -1.338374 4.143047
-1.503143 -1.345202 4.164185
-1.498132 -1.353077 4.188564
-1.492512 -1.360545 4.211680
-1.486160 -1.367478 4.233142
-1.480562 -1.375244 4.257183
-1.475079 -1.383266 4.282016
-1.468433 -1.390342 4.303920
-1.461515 -1.397296 4.325447
-1.455752 -1.405503 4.350851
-1.447344 -1.411293 4.368775
-1.434837 -1.413162 4.374562
-1.419967 -1.412720 4.373192
-1.404071 -1.411236 4.368599
-1.388107 -1.409652 4.363696
-1.372254 -1.408149 4.359045
-1.356336 -1.406548 4.354087
-1.341644 -1.406198 4.353002
-1.325952 -1.404779 4.348611
-1.311453 -1.404608 4.348081
-1.295872 -1.403260 4.343910
-1.281012 -1.402673 4.342093
-1.265559 -1.401416 4.338199
-1.250793 -1.400899 4.336601
-1.236148 -1.400507 4.335387
-1.220521 -1.398981 4.330664
-1.205955 -1.398650 4.329637
-1.191429 -1.398356 4.328729
-1.175734 -1.396668 4.323503
-1.161240 -1.396382 4.322618
-1.146678 -1.396006 4.321453
-1.131102 -1.394371 4.316393
-1.116521 -1.393936 4.315045
-1.102028 -1.393602 4.314012
-1.086511 -1.391946 4.308885
-1.071930 -1.391462 4.307387
-1.057418 -1.391056 4.306129
-1.041992 -1.389420 4.301066
-1.027389 -1.388851 4.299304
-1.012891 -1.388410 4.297938
-0.997556 -1.386792 4.292932
-0.983165 -1.386461 4.291907
-0.968611 -1.385885 4.290124
-0.953974 -1.385173 4.287920
-0.939538 -1.384735 4.286562
-0.925020 -1.384161 4.284787
-0.910547 -1.383637 4.283164
-0.895401 -1.382059 4.278278
-0.880798 -1.381281 4.275870
-0.866350 -1.380725 4.274149
-0.851853 -1.380072 4.272127
-0.837412 -1.379487 4.270319
-0.822541 -1.378165 4.266224
-0.808543 -1.378283 4.266590
-0.793586 -1.376742 4.261819
-0.778995 -1.375791 4.258875
-0.764789 -1.375498 4.257969
-0.750203 -1.374497 4.254870
-0.736017 -1.374205 4.253967
-0.721745 -1.373740 4.252526
-0.707276 -1.372872 4.249841
-0.692707 -1.371772 4.246434
-0.678561 -1.371480 4.245533
-0.664093 -1.370513 4.242538
-0.649879 -1.370039 4.241070
-0.635958 -1.370176 4.241495
-0.620669 -1.367304 4.232605
-0.604652 -1.362662 4.218233
-0.590316 -1.361677 4.215185
-0.576151 -1.361049 4.213240
-0.561863 -1.360092 4.210279
-0.548188 -1.360609 4.211878
-0.534282 -1.360561 4.211731
-0.520618 -1.361147 4.213544
-0.507632 -1.363584 4.221087
-0.495392 -1.368219 4.235438
-0.482964 -1.372592 4.248975
-0.469824 -1.375139 4.256859
-0.456828 -1.378279 4.266579
-0.443701 -1.381210 4.275651
-0.430574 -1.384333 4.285318
-0.417445 -1.387661 4.295621
-0.403860 -1.389656 4.301795
-0.389779 -1.390022 4.302930
-0.375493 -1.389662 4.301815
-0.361254 -1.389454 4.301170
-0.346813 -1.388419 4.297967
-0.332514 -1.387888 4.296323
-0.318102 -1.386818 4.293012
-0.303879 -1.386511 4.292062
-0.289618 -1.385993 4.290458
-0.275250 -1.384884 4.287025
-0.261056 -1.384575 4.286069
-0.246735 -1.383517 4.282792
-0.232421 -1.382377 4.279264
-0.218129 -1.381225 4.275698
-0.203858 -1.380060 4.272092
-0.189788 -1.380183 4.272471
-0.175555 -1.379039 4.268930
-0.161337 -1.377835 4.265203
-0.147186 -1.377017 4.262671
-0.133004 -1.375711 4.258628
-0.118940 -1.375463 4.257862
-0.104735 -1.373287 4.251126
-0.090695 -1.372948 4.250075
-0.076627 -1.371992 4.247115
-0.062564 -1.370702 4.243123
-0.048563 -1.370418 4.242244
-0.034550 -1.369432 4.239191
-0.020551 -1.368093 4.235048
-0.006585 -1.367770 4.234046
0.007370 -1.366707 4.230755
0.021300 -1.365369 4.226614
0.035227 -1.365005 4.225486
0.049156 -1.364879 4.225096
0.063035 -1.363754 4.221615
0.076880 -1.362412 4.217459
0.090760 -1.362022 4.216254
0.104645 -1.361792 4.215540
0.118442 -1.360599 4.211849
0.132199 -1.359256 4.207691
0.146028 -1.358829 4.206370
0.159759 -1.357653 4.202728
0.173417 -1.356091 4.197892
0.187197 -1.355636 4.196486
0.201003 -1.355429 4.195844
0.214599 -1.353917 4.191163
0.228192 -1.352574 4.187007
0.241911 -1.352084 4.185488
0.255410 -1.350486 4.180541
0.268881 -1.348913 4.175673
0.282531 -1.348348 4.173924
0.295781 -1.346011 4.166689
0.309376 -1.345385 4.164751
0.322955 -1.344744 4.162768
0.336097 -1.342411 4.155546
0.349626 -1.341747 4.153491
0.363128 -1.341032 4.151276
0.376395 -1.339533 4.146636
0.389679 -1.338196 4.142499
0.403157 -1.337593 4.140631
0.416556 -1.336778 4.138108
0.429640 -1.335034 4.132710
0.442825 -1.333703 4.128591
0.454658 -1.328501 4.112485
0.465456 -1.320662 4.088221
0.476907 -1.315069 4.070905
0.488423 -1.309953 4.055069
0.499638 -1.304322 4.037638
0.509245 -1.294898 4.008464
0.520225 -1.289352 3.991296
0.533169 -1.288829 3.989678
0.546098 -1.288294 3.988022
0.558781 -1.287218 3.984692
0.571406 -1.286063 3.981115
0.584215 -1.285362 3.978946
0.597404 -1.285509 3.979401
0.611443 -1.287442 3.985386
0.626596 -1.291589 3.998221
0.637873 -1.287740 3.986307
0.619343 -1.225086 3.792356
0.626945 -1.215580 3.762928
0.637654 -1.212350 3.752930
0.649050 -1.210524 3.747279
0.660359 -1.208608 3.741347
0.673186 -1.209489 3.744076
0.686589 -1.211354 3.749848
0.701817 -1.216316 3.765208
0.715795 -1.218977 3.773447
0.722359 -1.209139 3.742991
0.729816 -1.201099 3.718102
0.740608 -1.198722 3.710745
0.751314 -1.196288 3.703209
0.763398 -1.196088 3.702590
0.776147 -1.196921 3.705170
0.789077 -1.198003 3.708518
0.800797 -1.197243 3.706166
0.812333 -1.196235 3.703046
0.822562 -1.193360 3.694147
0.832687 -1.190421 3.685049
0.843590 -1.188663 3.679605
0.854059 -1.186351 3.672449
0.864781 -1.184451 3.666566
0.875334 -1.182375 3.660142
0.885101 -1.179307 3.650644
0.896469 -1.178428 3.647922
0.908678 -1.178662 3.648647
0.931167 -1.192050 3.690090
0.951838 -1.202795 3.723352
0.960789 -1.198645 3.710507
0.970426 -1.195445 3.700599
0.981854 -1.194503 3.697684
0.993599 -1.193965 3.696018
1.011458 -1.200698 3.716861
1.044018 -1.224513 3.790581
1.063480 -1.232583 3.815564
1.078099 -1.234916 3.822786
1.091342 -1.235639 3.825023
1.103078 -1.234657 3.821985
1.114840 -1.233728 3.819107
1.128388 -1.234772 3.822340
1.140365 -1.234095 3.820243
1.154129 -1.235343 3.824109
1.167770 -1.236436 3.827490
1.181428 -1.237522 3.830853
1.193277 -1.236711 3.828343
1.205087 -1.235877 3.825760
1.216123 -1.234274 3.820799
1.224886 -1.230422 3.808873
1.233389 -1.226388 3.796386
1.243143 -1.223667 3.787964
1.243144 -1.211496 3.750286
1.227363 -1.184336 3.666210
1.230382 -1.175669 3.639381
1.239162 -1.172621 3.629948
1.247878 -1.169572 3.620509
1.258630 -1.168471 3.617101
1.270058 -1.168012 3.615680
1.282515 -1.168500 3.617189
1.294512 -1.168563 3.617384
1.306365 -1.168495 3.617175
1.316941 -1.167298 3.613468
1.327582 -1.166179 3.610004
1.338093 -1.164967 3.606252
1.349814 -1.164820 3.605797
1.361777 -1.164882 3.605990
1.372314 -1.163735 3.602438
1.378730 -1.159142 3.588222
1.385899 -1.155255 3.576189
1.408575 -1.164252 3.604038
1.436366 -1.177289 3.644397
1.437373 -1.168340 3.616694
1.425162 -1.148883 3.556462
1.414995 -1.131377 3.502273
1.410202 -1.118417 3.462153
1.404476 -1.104931 3.420407
1.398023 -1.091093 3.377569
1.391818 -1.077665 3.336001
1.385315 -1.064218 3.294377
1.378229 -1.050537 3.252027
1.372219 -1.037881 3.212848
1.365019 -1.024526 3.171505
1.357881 -1.011419 3.130934
1.350582 -0.998392 3.090606
1.343566 -0.985768 3.051527
1.337190 -0.973797 3.014470
1.331242 -0.962312 2.978918
1.323760 -0.949894 2.940478
1.317612 -0.938608 2.905539
1.311358 -0.927410 2.870875
1.306119 -0.917084 2.838911
1.299994 -0.906289 2.805492
1.293711 -0.895536 2.772205
1.285252 -0.883438 2.734756
1.272659 -0.868687 2.689094
1.262960 -0.856102 2.650136
1.255806 -0.845403 2.617016
1.252343 -0.837318 2.591989
1.251653 -0.831184 2.573001
1.253623 -0.826888 2.559701
1.257940 -0.824186 2.551337
1.262490 -0.821673 2.543556
1.264274 -0.817403 2.530341
1.260098 -0.809362 2.505449
1.254628 -0.800600 2.478324
1.249054 -0.791885 2.451346
1.243231 -0.783125 2.424230
1.236197 -0.773720 2.395114
1.232396 -0.766444 2.372592
-1.708622 -1.025975 3.209084
-1.700022 -1.027173 3.212829
-1.696958 -1.031751 3.227148
-1.693209 -1.035968 3.240339
-1.691353 -1.041404 3.257342
-1.689046 -1.046630 3.273687
-1.685829 -1.051356 3.288469
-1.683262 -1.056550 3.304717
-1.679582 -1.061110 3.318978
-1.677082 -1.066479 3.335773
-1.674757 -1.072032 3.353142
-1.671082 -1.076789 3.368019
-1.667930 -1.081948 3.384156
-1.663959 -1.086642 3.398838
-1.661191 -1.092190 3.416193
-1.658489 -1.097859 3.433922
-1.655675 -1.103530 3.451662
-1.652693 -1.109167 3.469294
-1.649711 -1.114883 3.487170
-1.646567 -1.120568 3.504953
-1.643412 -1.126327 3.522966
-1.640103 -1.132061 3.540901
-1.636773 -1.137863 3.559049
-1.633296 -1.143645 3.577135
-1.629789 -1.149491 3.595420
-1.626141 -1.155322 3.613658
-1.622454 -1.161211 3.632079
-1.618631 -1.167090 3.650468
-1.614761 -1.173023 3.669026
-1.610762 -1.178951 3.687565
-1.606706 -1.184927 3.706259
-1.602527 -1.190903 3.724950
-1.598283 -1.196923 3.743779
-1.594247 -1.203194 3.763394
-1.589811 -1.209259 3.782363
-1.586484 -1.216270 3.804293
-1.581998 -1.222496 3.823769
-1.577432 -1.228761 3.843364
-1.573180 -1.235374 3.864049
-1.568873 -1.242052 3.884935
-1.563837 -1.248257 3.904344
-1.558702 -1.254486 3.923826
-1.554416 -1.261507 3.945788
-1.549642 -1.268248 3.966874
-1.545169 -1.275352 3.989094
-1.540154 -1.282128 4.010287
-1.534672 -1.288628 4.030618
-1.530232 -1.296125 4.054066
-1.525441 -1.303453 4.076987
-1.519868 -1.310238 4.098210
-1.514879 -1.317652 4.121401
-1.509254 -1.324643 4.143266
-1.504266 -1.332325 4.167296
-1.497991 -1.338999 4.188169
-1.492967 -1.346925 4.212963
-1.487505 -1.354602 4.236973
-1.480784 -1.361267 4.257821
-1.475506 -1.369398 4.283254
-1.469462 -1.376970 4.306936
-1.462595 -1.383909 4.328642
-1.455629 -1.390892 4.350482
-1.448069 -1.397440 4.370964
-1.435581 -1.399315 4.376830
-1.419945 -1.398130 4.373123
-1.404048 -1.396661 4.368527
-1.388082 -1.395092 4.363619
-1.372228 -1.393604 4.358964
-1.356544 -1.392258 4.354754
-1.341769 -1.391827 4.353406
-1.327008 -1.391401 4.352076
-1.311391 -1.390058 4.347875
-1.296808 -1.389795 4.347050
-1.281285 -1.388505 4.343018
-1.266388 -1.387873 4.341041
-1.250741 -1.386396 4.336421
-1.236170 -1.386091 4.335466
-1.221611 -1.385792 4.334531
-1.205911 -1.384176 4.329477
-1.191412 -1.383918 4.328669
-1.176834 -1.383560 4.327549
-1.161443 -1.382225 4.323372
-1.146877 -1.381851 4.322206
-1.132143 -1.381263 4.320364
-1.116534 -1.379578 4.315094
-1.101998 -1.379194 4.313894
-1.087475 -1.378815 4.312708
-1.071986 -1.377185 4.307611
-1.057394 -1.376680 4.306030
-1.042883 -1.376268 4.304742
-1.027484 -1.374657 4.299702
-1.012872 -1.374067 4.297857
-0.998376 -1.373620 4.296460
-0.983237 -1.372265 4.292221
-0.968762 -1.371809 4.290793
-0.954127 -1.371109 4.288605
-0.939677 -1.370659 4.287197
-0.925048 -1.369929 4.284914
-0.910537 -1.369355 4.283119
-0.896068 -1.368826 4.281465
-0.881085 -1.367484 4.277266
-0.866470 -1.366678 4.274744
-0.852069 -1.366187 4.273210
-0.837455 -1.365334 4.270542
-0.823021 -1.364749 4.268712
-0.808541 -1.364067 4.266579
-0.794167 -1.363542 4.264938
-0.779696 -1.362829 4.262707
-0.765282 -1.362192 4.260714
-0.750875 -1.361543 4.258683
-0.736530 -1.360983 4.256933
-0.722081 -1.360207 4.254506
-0.707700 -1.359531 4.252389
-0.693003 -1.358207 4.248249
-0.679010 -1.358238 4.248345
-0.664591 -1.357399 4.245722
-0.650298 -1.356786 4.243806
-0.636249 -1.356668 4.243437
-0.621281 -1.354540 4.236781
-0.605182 -1.349792 4.221928
-0.590385 -1.347792 4.215674
-0.576150 -1.347012 4.213232
-0.562419 -1.347400 4.214446
-0.548508 -1.347364 4.214334
-0.534332 -1.346657 4.212124
-0.520619 -1.347115 4.213555
-0.507855 -1.350116 4.222942
-0.495394 -1.354117 4.235457
-0.483224 -1.359170 4.251261
-0.470225 -1.362121 4.260493
-0.457217 -1.365228 4.270211
-0.443871 -1.367490 4.277285
-0.430614 -1.370186 4.285718
-0.417798 -1.374512 4.299248
-0.404159 -1.376343 4.304976
-0.389813 -1.375809 4.303305
-0.375494 -1.375335 4.301825
-0.361259 -1.375145 4.301230
-0.346945 -1.374626 4.299604
-0.332515 -1.373580 4.296334
-0.318284 -1.373306 4.295476
-0.304006 -1.372790 4.293864
-0.289567 -1.371457 4.289694
-0.275416 -1.371430 4.289610
-0.261074 -1.370392 4.286361
-0.246740 -1.369278 4.282876
-0.232426 -1.368151 4.279352
-0.218133 -1.367012 4.275789
-0.203923 -1.366263 4.273448
-0.189799 -1.366028 4.272714
-0.175559 -1.364850 4.269028
-0.161386 -1.364033 4.266473
-0.147159 -1.362571 4.261900
-0.133011 -1.361595 4.258846
-0.118830 -1.360012 4.253896
-0.104808 -1.360079 4.254105
-0.090633 -1.357859 4.247162
-0.076611 -1.357565 4.246241
-0.062566 -1.356604 4.243234
-0.048528 -1.355308 4.239182
-0.034542 -1.355026 4.238298
-0.020551 -1.353987 4.235049
-0.006580 -1.352660 4.230901
0.007369 -1.352364 4.229974
0.021316 -1.352290 4.229743
0.035235 -1.351244 4.226470
0.049121 -1.349848 4.222104
0.063027 -1.349517 4.221068
0.076935 -1.349337 4.220505
0.090772 -1.348156 4.216810
0.104574 -1.346831 4.212667
0.118432 -1.346460 4.211506
0.132291 -1.346174 4.210613
0.146040 -1.344929 4.206717
0.159753 -1.343605 4.202577
0.173558 -1.343196 4.201297
0.187240 -1.341968 4.197455
0.200854 -1.340453 4.192717
0.214599 -1.339959 4.191172
0.228340 -1.339491 4.189710
0.241730 -1.337143 4.182364
0.255419 -1.336610 4.180698
0.268942 -1.335309 4.176629
0.282362 -1.333646 4.171427
0.296007 -1.333152 4.169881
0.309427 -1.331732 4.165439
0.322768 -1.330106 4.160355
0.336354 -1.329585 4.158724
0.349705 -1.328212 4.154430
0.362924 -1.326459 4.148947
0.376449 -1.325910 4.147230
0.389897 -1.325138 4.144814
0.403043 -1.323426 4.139461
0.416332 -1.322284 4.135888
0.429780 -1.321699 4.134057
0.442738 -1.319692 4.127781
0.454866 -1.315404 4.114368
0.465712 -1.307763 4.090470
0.477321 -1.302636 4.074433
0.488907 -1.297730 4.059087
0.500132 -1.292151 4.041636
0.509749 -1.282813 4.012430
0.520739 -1.277318 3.995242
0.533233 -1.275691 3.990153
0.546215 -1.275284 3.988880
0.559016 -1.274480 3.986366
0.571470 -1.272944 3.981560
0.584339 -1.272379 3.979792
0.597991 -1.273505 3.983315
0.612044 -1.275419 3.989302
0.626823 -1.278734 3.999670
0.625833 -1.250405 3.911062
0.616958 -1.207785 3.777754
0.626367 -1.201936 3.759461
0.637014 -1.198644 3.749163
0.648355 -1.196759 3.743267
0.660185 -1.195830 3.740362
0.672522 -1.195836 3.740381
0.685636 -1.197199 3.744643
0.699721 -1.200179 3.753964
0.712553 -1.200944 3.756356
0.719990 -1.192746 3.730716
0.729468 -1.188147 3.716328
0.740114 -1.185570 3.708270
0.751114 -1.183637 3.702223
0.763207 -1.183458 3.701663
0.776316 -1.184837 3.705977
0.789704 -1.186593 3.711468
0.801567 -1.186038 3.709732
0.813275 -1.185273 3.707342
0.823351 -1.182189 3.697692
0.833461 -1.179242 3.688475
0.844222 -1.177287 3.682360
0.854856 -1.175213 3.675875
0.865444 -1.173136 3.669377
0.876169 -1.171298 3.663630
0.885943 -1.168257 3.654118
0.897321 -1.167385 3.651389
0.909565 -1.167646 3.652207
0.927723 -1.175395 3.676443
0.950846 -1.189151 3.719471
0.959574 -1.184785 3.705812
0.970888 -1.183681 3.702360
0.982320 -1.182746 3.699438
0.993778 -1.181866 3.696684
1.005179 -1.180940 3.693789
1.018059 -1.181752 3.696328
1.035879 -1.188213 3.716535
1.056421 -1.197607 3.745920
1.075393 -1.205026 3.769124
1.090351 -1.207828 3.777890
1.105611 -1.210898 3.787491
1.119265 -1.212160 3.791440
1.128652 -1.208824 3.781004
1.135911 -1.203306 3.763746
1.144053 -1.198833 3.749755
1.151101 -1.193322 3.732515
1.158927 -1.188725 3.718139
1.167933 -1.185422 3.707807
1.177661 -1.182913 3.699959
1.186878 -1.179948 3.690683
1.197426 -1.178352 3.685693
1.207178 -1.176013 3.678377
1.215896 -1.172723 3.668087
1.223931 -1.168846 3.655958
1.232150 -1.165218 3.644612
1.240586 -1.161863 3.634119
1.249653 -1.159159 3.625660
1.259766 -1.157466 3.620364
1.272147 -1.157869 3.621626
1.283668 -1.157490 3.620440
1.296037 -1.157876 3.621645
1.307534 -1.157482 3.620414
1.318117 -1.156293 3.616696
1.328766 -1.155183 3.613222
1.340435 -1.154972 3.612564
1.351189 -1.153983 3.609470
1.362983 -1.153892 3.609185
1.373528 -1.152753 3.605624
1.379947 -1.148202 3.591389
1.386270 -1.143649 3.577148
1.407579 -1.151431 3.601488
1.436891 -1.165576 3.645731
1.436484 -1.155578 3.614459
1.424328 -1.136370 3.554381
1.416228 -1.120687 3.505325
1.409750 -1.106529 3.461043
1.403217 -1.092557 3.417340
1.397636 -1.079543 3.376633
1.391747 -1.066498 3.335832
1.384832 -1.052878 3.293229
1.377924 -1.039474 3.251306
1.370717 -1.026055 3.209331
1.364488 -1.013567 3.170270
1.357993 -1.001073 3.131192
1.351733 -0.988939 3.093240
1.344493 -0.976276 3.053631
1.337095 -0.963687 3.014256
1.331264 -0.952405 2.978967
1.324878 -0.940894 2.942961
1.318414 -0.929495 2.907308
1.312461 -0.918618 2.873288
1.306143 -0.907644 2.838964
1.300846 -0.897531 2.807330
1.294791 -0.887041 2.774519
1.285075 -0.874208 2.734379
1.273430 -0.860251 2.690724
1.264251 -0.848140 2.652845
1.256598 -0.837213 2.618666
1.252333 -0.828678 2.591968
1.252683 -0.823290 2.575118
1.254652 -0.819033 2.561802
1.260097 -0.817086 2.555713
1.263522 -0.813864 2.545634
1.264174 -0.808910 2.530140
1.259892 -0.800885 2.505037
1.254159 -0.792048 2.477398
1.248578 -0.783421 2.450412
1.242781 -0.774770 2.423353
1.235955 -0.765592 2.394646
1.231237 -0.757828 2.370362
-1.706850 -1.014233 3.205755
-1.699892 -1.016393 3.212583
-1.696256 -1.020579 3.225813
-1.694467 -1.025936 3.242745
-1.692540 -1.031277 3.259628
-1.689021 -1.035710 3.273639
-1.685373 -1.040120 3.287578
-1.682998 -1.045378 3.304199
-1.680845 -1.050844 3.321474
-1.677004 -1.055319 3.335618
-1.674215 -1.060519 3.352056
-1.670627 -1.065279 3.367101
-1.667764 -1.070569 3.383820
-1.665226 -1.076139 3.401425
-1.662221 -1.081481 3.418312
-1.658375 -1.086345 3.433686
-1.655328 -1.091803 3.450937
-1.652349 -1.097382 3.468572
-1.649069 -1.102837 3.485813
-1.646230 -1.108666 3.504236
-1.643079 -1.114366 3.522252
-1.640063 -1.120239 3.540815
-1.636737 -1.125983 3.558970
-1.633643 -1.131970 3.577895
-1.631062 -1.138403 3.598229
-1.627414 -1.144180 3.616487
-1.623727 -1.150015 3.634930
-1.619904 -1.155839 3.653340
-1.616034 -1.161717 3.671918
-1.612034 -1.167589 3.690479
-1.607978 -1.173510 3.709194
-1.603798 -1.179430 3.727907
-1.599554 -1.185394 3.746757
-1.595190 -1.191363 3.765621
-1.590754 -1.197370 3.784608
-1.586205 -1.203385 3.803623
-1.581574 -1.209435 3.822746
-1.576966 -1.215599 3.842228
-1.572286 -1.221808 3.861852
-1.568106 -1.228510 3.883035
-1.563852 -1.235263 3.904379
-1.559966 -1.242422 3.927007
-1.554726 -1.248612 3.946574
-1.549390 -1.254831 3.966229
-1.544095 -1.261187 3.986321
-1.540761 -1.269269 4.011867
-1.535747 -1.276095 4.033442
-1.530154 -1.282555 4.053858
-1.525671 -1.290067 4.077604
-1.521121 -1.297655 4.101588
-1.515084 -1.304100 4.121959
-1.509871 -1.311377 4.144960
-1.504218 -1.318401 4.167162
-1.499030 -1.325967 4.191075
-1.492722 -1.332674 4.212273
-1.487474 -1.340461 4.236886
-1.482022 -1.348210 4.261379
-1.475269 -1.354913 4.282568
-1.469567 -1.362720 4.307242
-1.462395 -1.369303 4.328050
-1.456629 -1.377345 4.353470
-1.448333 -1.383132 4.371760
-1.436793 -1.385906 4.380527
-1.421086 -1.384674 4.376636
-1.405182 -1.383225 4.372054
-1.389209 -1.381677 4.367160
-1.373347 -1.380208 4.362518
-1.357421 -1.378643 4.357571
-1.341841 -1.377399 4.353641
-1.327021 -1.376917 4.352116
-1.312358 -1.376590 4.351081
-1.296654 -1.375151 4.346533
-1.282148 -1.374965 4.345945
-1.266528 -1.373565 4.341522
-1.251748 -1.373056 4.339911
-1.236249 -1.371736 4.335742
-1.221530 -1.371263 4.334244
-1.206915 -1.370895 4.333082
-1.191488 -1.369586 4.328945
-1.176922 -1.369246 4.327870
-1.162213 -1.368730 4.326238
-1.146738 -1.367288 4.321681
-1.132225 -1.366971 4.320679
-1.117465 -1.366343 4.318696
-1.101944 -1.364757 4.313681
-1.087378 -1.364328 4.312325
-1.072845 -1.363929 4.311064
-1.057554 -1.362543 4.306683
-1.042782 -1.361797 4.304327
-1.028274 -1.361380 4.303007
-1.013059 -1.360002 4.298653
-0.998571 -1.359575 4.297303
-0.983937 -1.358933 4.295274
-0.969298 -1.358267 4.293167
-0.954807 -1.357791 4.291665
-0.939710 -1.356426 4.287349
-0.925832 -1.356806 4.288548
-0.910650 -1.355256 4.283652
-0.896028 -1.354504 4.281273
-0.881565 -1.353973 4.279594
-0.867067 -1.353369 4.277687
-0.852610 -1.352812 4.275925
-0.837674 -1.351462 4.271657
-0.823710 -1.351660 4.272286
-0.808717 -1.350148 4.267504
-0.794395 -1.349722 4.266160
-0.779886 -1.348958 4.263744
-0.765479 -1.348345 4.261807
-0.751077 -1.347720 4.259831
-0.736765 -1.347234 4.258295
-0.722374 -1.346582 4.256233
-0.707995 -1.345926 4.254162
-0.693545 -1.345108 4.251574
-0.679250 -1.344561 4.249846
-0.664823 -1.343724 4.247200
-0.650474 -1.343013 4.244955
-0.636474 -1.343008 4.244937
-0.621290 -1.340447 4.236843
-0.605479 -1.336386 4.224006
-0.590337 -1.333642 4.215334
-0.576616 -1.334056 4.216643
-0.562483 -1.333511 4.214920
-0.548258 -1.332717 4.212411
-0.534470 -1.332972 4.213217
-0.520766 -1.333455 4.214743
-0.507862 -1.336069 4.223005
-0.495804 -1.341119 4.238968
-0.483608 -1.346078 4.254641
-0.470656 -1.349165 4.264399
-0.457362 -1.351431 4.271559
-0.444146 -1.354082 4.279939
-0.430978 -1.357056 4.289339
-0.417773 -1.360112 4.298999
-0.404240 -1.362276 4.305839
-0.389934 -1.361898 4.304645
-0.375673 -1.361654 4.303874
-0.361367 -1.361222 4.302509
-0.346919 -1.360200 4.299278
-0.332683 -1.359957 4.298511
-0.318323 -1.359163 4.296000
-0.303883 -1.357935 4.292119
-0.289597 -1.357311 4.290145
-0.275230 -1.356224 4.286712
-0.261049 -1.355983 4.285948
-0.246725 -1.354931 4.282625
-0.232412 -1.353817 4.279104
-0.218153 -1.352889 4.276169
-0.203881 -1.351753 4.272578
-0.189783 -1.351685 4.272363
-0.175595 -1.350907 4.269904
-0.161332 -1.349377 4.265069
-0.147175 -1.348518 4.262353
-0.132969 -1.346985 4.257508
-0.118851 -1.346079 4.254645
-0.104719 -1.344764 4.250487
-0.090693 -1.344602 4.249976
-0.076563 -1.342566 4.243541
-0.062548 -1.342098 4.242061
-0.048562 -1.342125 4.242147
-0.034547 -1.341074 4.238825
-0.020546 -1.339537 4.233966
-0.006585 -1.339515 4.233898
0.007370 -1.338406 4.230392
0.021298 -1.337095 4.226248
0.035226 -1.336823 4.225389
0.049157 -1.336765 4.225204
0.063030 -1.335523 4.221278
0.076874 -1.334214 4.217143
0.090758 -1.333901 4.216153
0.104642 -1.333666 4.215411
0.118432 -1.332431 4.211507
0.132193 -1.331159 4.207486
0.146024 -1.330772 4.206263
0.159853 -1.330432 4.205186
0.173549 -1.329135 4.201089
0.187192 -1.327643 4.196373
0.200998 -1.327439 4.195729
0.214618 -1.326111 4.191530
0.228176 -1.324584 4.186703
0.241903 -1.324160 4.185365
0.255387 -1.322520 4.180179
0.268907 -1.321225 4.176085
0.282518 -1.320478 4.173726
0.295959 -1.319048 4.169205
0.309365 -1.317594 4.164610
0.322938 -1.316942 4.162550
0.336066 -1.314605 4.155163
0.349613 -1.314028 4.153339
0.363210 -1.313671 4.152209
0.376494 -1.312251 4.147721
0.389650 -1.310500 4.142188
0.403140 -1.309954 4.140461
0.416663 -1.309546 4.139173
0.429655 -1.307549 4.132861
0.442805 -1.306140 4.128407
0.454981 -1.302028 4.115408
0.465888 -1.294629 4.092021
0.477553 -1.289691 4.076414
0.489354 -1.285382 4.062794
0.500838 -1.280492 4.047339
0.510213 -1.270605 4.016089
0.520951 -1.264525 3.996870
0.533660 -1.263412 3.993353
0.546600 -1.262885 3.991689
0.559022 -1.261215 3.986409
0.571872 -1.260566 3.984358
0.584750 -1.260005 3.982585
0.597949 -1.260147 3.983033
0.612066 -1.262175 3.989442
0.626481 -1.264719 3.997483
0.615629 -1.217202 3.847293
0.615731 -1.192823 3.770236
0.625770 -1.188279 3.755874
0.636496 -1.185191 3.746115
0.648011 -1.183662 3.741282
0.659471 -1.182090 3.736314
0.672050 -1.182547 3.737756
0.684941 -1.183525 3.740848
0.698445 -1.185508 3.747118
0.710682 -1.185312 3.746496
0.718840 -1.178433 3.724754
0.728956 -1.174941 3.713718
0.740461 -1.173769 3.710012
0.751033 -1.171178 3.701822
0.762511 -1.170060 3.698289
0.775511 -1.171277 3.702134
0.789750 -1.174297 3.711680
0.802397 -1.174896 3.713573
0.813996 -1.173963 3.710624
0.824168 -1.171032 3.701360
0.834197 -1.167986 3.691732
0.844966 -1.166048 3.685607
0.855609 -1.163993 3.679113
0.866368 -1.162152 3.673294
0.876938 -1.160113 3.666848
0.886867 -1.157292 3.657931
0.898943 -1.157310 3.657990
0.911226 -1.157590 3.658875
0.925478 -1.160334 3.667546
0.949780 -1.175443 3.715304
0.960212 -1.173221 3.708280
0.971732 -1.172366 3.705579
0.983172 -1.171439 3.702649
0.994639 -1.170566 3.699888
1.006027 -1.169622 3.696904
1.018266 -1.169678 3.697083
1.029795 -1.168927 3.694707
1.042168 -1.169140 3.695381
1.053490 -1.168183 3.692358
1.065272 -1.167753 3.690996
1.078364 -1.168751 3.694151
1.089948 -1.168111 3.692130
1.102090 -1.168077 3.692021
1.114260 -1.168072 3.692007
1.125442 -1.167044 3.688757
1.136642 -1.166056 3.685632
1.147809 -1.165055 3.682468
1.158908 -1.164007 3.679156
1.169976 -1.162950 3.675814
1.182051 -1.162905 3.675674
1.194185 -1.162919 3.675717
1.205224 -1.161876 3.672422
1.215925 -1.160532 3.668172
1.224778 -1.157467 3.658487
1.233257 -1.154113 3.647885
1.241701 -1.150792 3.637387
1.252268 -1.149482 3.633247
1.262389 -1.147791 3.627902
1.274006 -1.147481 3.626920
1.285106 -1.146714 3.624497
1.297108 -1.146758 3.624638
1.308613 -1.146367 3.623399
1.319202 -1.145188 3.619673
1.329857 -1.144086 3.616190
1.340619 -1.143095 3.613059
1.352295 -1.142894 3.612423
1.363500 -1.142302 3.610552
1.374647 -1.141672 3.608562
1.381069 -1.137163 3.594309
1.387395 -1.132652 3.580051
1.408718 -1.140357 3.604405
1.438493 -1.154718 3.649795
1.436943 -1.143903 3.615612
1.424725 -1.124844 3.555373
1.414850 -1.107931 3.501914
1.410224 -1.095369 3.462208
1.403884 -1.081688 3.418965
1.397099 -1.067884 3.375335
1.390383 -1.054352 3.332562
1.384302 -1.041509 3.291970
1.377736 -1.028504 3.250862
1.370704 -1.015355 3.209301
1.364598 -1.003087 3.170526
1.357457 -0.990252 3.129956
1.350316 -0.977610 3.089999
1.344471 -0.966088 3.053581
1.338140 -0.954392 3.016612
1.330975 -0.942277 2.978320
1.325619 -0.931611 2.944608
1.318485 -0.919860 2.907466
1.313159 -0.909531 2.874817
1.306947 -0.898741 2.840712
1.301849 -0.888864 2.809494
1.295786 -0.878474 2.776653
1.284784 -0.864904 2.733760
1.273575 -0.851385 2.691030
1.266452 -0.840765 2.657464
1.257555 -0.829122 2.620661
1.253136 -0.820570 2.593632
1.253632 -0.815330 2.577070
1.256483 -0.811682 2.565540
1.261047 -0.809183 2.557640
1.264473 -0.805991 2.547550
1.263992 -0.800368 2.529777
1.260746 -0.793078 2.506736
1.254064 -0.783737 2.477210
1.248487 -0.775202 2.450234
1.243628 -0.767220 2.425005
1.235410 -0.757281 2.393590
1.231886 -0.750327 2.371610
-1.707889 -1.004166 3.207708
-1.699295 -1.005339 3.211455
-1.697595 -1.010631 3.228360
-1.694394 -1.015091 3.242607
-1.692228 -1.020231 3.259026
-1.688436 -1.024450 3.272504
-1.686442 -1.029822 3.289664
-1.684217 -1.035121 3.306592
-1.680631 -1.039647 3.321051
-1.676637 -1.043979 3.334888
-1.674100 -1.049281 3.351825
-1.671722 -1.054754 3.369308
-1.669114 -1.060154 3.386559
-1.665197 -1.064790 3.401368
-1.660811 -1.069187 3.415411
-1.657870 -1.074580 3.432640
-1.655064 -1.080136 3.450387
-1.652089 -1.085657 3.468025
-1.649114 -1.091256 3.485908
-1.645977 -1.096825 3.503698
-1.642830 -1.102465 3.521717
-1.639527 -1.108082 3.539659
-1.636205 -1.113766 3.557814
-1.632806 -1.119478 3.576062
-1.629478 -1.125323 3.594733
-1.627183 -1.131972 3.615973
-1.623661 -1.137860 3.634783
-1.619680 -1.143511 3.652834
-1.615814 -1.149329 3.671417
-1.611818 -1.155141 3.689983
-1.607765 -1.161001 3.708702
-1.603589 -1.166860 3.727419
-1.599444 -1.172833 3.746499
-1.595225 -1.178845 3.765703
-1.591357 -1.185211 3.786041
-1.587559 -1.191732 3.806870
-1.582927 -1.197725 3.826016
-1.578187 -1.203733 3.845205
-1.573358 -1.209768 3.864486
-1.568426 -1.215823 3.883826
-1.563514 -1.221993 3.903536
-1.559167 -1.228711 3.924995
-1.554785 -1.235513 3.946725
-1.550735 -1.242697 3.969672
-1.545287 -1.248872 3.989398
-1.539877 -1.255185 4.009565
-1.535721 -1.262638 4.033371
-1.531333 -1.270029 4.056982
-1.525656 -1.276472 4.077563
-1.521111 -1.283985 4.101562
-1.515952 -1.291109 4.124321
-1.510161 -1.297819 4.145756
-1.504942 -1.305149 4.169168
-1.499042 -1.312017 4.191108
-1.493868 -1.319654 4.215505
-1.488234 -1.327025 4.239050
-1.482049 -1.334040 4.261458
-1.476399 -1.341675 4.285847
-1.469604 -1.348407 4.307353
-1.462493 -1.354977 4.328342
-1.456676 -1.362888 4.353611
-1.449158 -1.369349 4.374251
-1.436731 -1.371254 4.380337
-1.421191 -1.370197 4.376959
-1.405247 -1.368725 4.372257
-1.389278 -1.367197 4.367377
-1.373421 -1.365749 4.362751
-1.358443 -1.365155 4.360852
-1.342825 -1.363896 4.356833
-1.327132 -1.362534 4.352480
-1.312431 -1.362171 4.351322
-1.297723 -1.361794 4.350115
-1.282071 -1.360405 4.345681
-1.267485 -1.360131 4.344803
-1.251920 -1.358786 4.340509
-1.237107 -1.358237 4.338753
-1.221645 -1.356953 4.334651
-1.206891 -1.356435 4.332996
-1.192362 -1.356160 4.332121
-1.176831 -1.354725 4.327537
-1.162331 -1.354457 4.326678
-1.147604 -1.353914 4.324944
-1.133079 -1.353598 4.323935
-1.117581 -1.352098 4.319143
-1.102924 -1.351589 4.317518
-1.087541 -1.350165 4.312969
-1.072961 -1.349714 4.311529
-1.058296 -1.349143 4.309704
-1.043761 -1.348724 4.308367
-1.029241 -1.348313 4.307052
