ply
format ascii 1.0
comment generated by convert_depth_to_ply.py
element vertex 1622
property float x
property float y
property float z
end_header
1.310148 -1.308740 22.689516
1.334427 -1.308452 22.684513
1.358813 -1.308276 22.681459
1.380894 -1.305926 22.640730
1.405317 -1.305836 22.639154
1.427912 -1.304078 22.608681
1.451643 -1.303399 22.596916
1.476009 -1.303304 22.595268
1.500369 -1.303207 22.593588
1.527369 -1.305369 22.631067
1.551761 -1.305269 22.629335
1.573424 -1.302913 22.588490
1.597763 -1.302810 22.586704
1.624909 -1.304966 22.624075
1.649278 -1.304860 22.622236
1.673641 -1.304752 22.620369
1.700937 -1.306901 22.657621
1.725338 -1.306796 22.655804
1.750079 -1.306948 22.658436
1.774503 -1.306862 22.656950
1.799286 -1.307040 22.660030
1.826829 -1.309190 22.697317
1.854297 -1.311231 22.732695
1.878897 -1.311217 22.732445
1.903767 -1.311388 22.735418
1.928647 -1.311563 22.738447
1.953103 -1.311448 22.736450
1.980947 -1.313583 22.773462
2.005514 -1.313518 22.772346
2.033401 -1.315604 22.808512
2.057898 -1.315473 22.806229
2.082854 -1.315634 22.809023
2.107342 -1.315499 22.806696
2.132312 -1.315665 22.809568
2.156789 -1.315527 22.807175
2.181260 -1.315388 22.804760
2.205723 -1.315248 22.802330
2.230190 -1.315112 22.799980
2.255234 -1.315316 22.803522
2.283018 -1.317098 22.834402
2.308205 -1.317358 22.838909
2.336006 -1.319089 22.868919
2.360612 -1.318998 22.867346
2.385529 -1.319081 22.868792
2.410020 -1.318929 22.866159
2.434511 -1.318781 22.863585
2.458981 -1.318624 22.860868
2.484000 -1.318762 22.863253
2.508463 -1.318604 22.860527
2.532925 -1.318450 22.857843
2.561791 -1.320568 22.894569
2.586264 -1.320403 22.891714
2.615253 -1.322525 22.928501
2.639763 -1.322364 22.925701
2.664849 -1.322490 22.927898
2.689333 -1.322320 22.924934
2.714425 -1.322448 22.927155
2.738908 -1.322280 22.924242
2.768151 -1.324392 22.960859
2.792645 -1.324214 22.957787
2.817129 -1.324036 22.954689
2.846533 -1.326152 22.991379
2.871351 -1.326114 22.990713
2.896206 -1.326093 22.990353
2.920698 -1.325908 22.987146
2.945841 -1.326019 22.989069
2.970318 -1.325831 22.985813
2.994808 -1.325652 22.982702
3.019264 -1.325460 22.979389
3.048976 -1.327561 23.015806
3.073481 -1.327378 23.012640
3.097948 -1.327183 23.009249
3.122404 -1.326986 23.005829
3.146850 -1.326787 23.002388
3.174594 -1.327971 23.022921
3.201259 -1.328689 23.035368
3.226167 -1.328673 23.035076
3.250884 -1.328578 23.033440
3.276092 -1.328684 23.035280
3.300524 -1.328476 23.031677
3.324945 -1.328267 23.028049
3.355149 -1.330354 23.064230
3.379589 -1.330142 23.060547
3.404033 -1.329934 23.056948
3.428449 -1.329718 23.053205
3.452852 -1.329501 23.049438
3.477291 -1.329300 23.045959
3.501672 -1.329080 23.042149
3.526041 -1.328859 23.038311
3.550397 -1.328636 23.034447
3.574741 -1.328412 23.030560
3.599084 -1.328191 23.026722
3.623403 -1.327963 23.022781
3.654021 -1.330032 23.058645
3.678417 -1.329823 23.055023
3.702742 -1.329591 23.051004
3.727053 -1.329358 23.046961
3.752100 -1.329388 23.047487
3.776483 -1.329185 23.043959
3.801549 -1.329222 23.044611
3.825890 -1.329008 23.040892
3.856413 -1.330930 23.074209
3.881168 -1.330849 23.072813
3.912201 -1.332908 23.108509
3.936503 -1.332663 23.104252
3.962560 -1.333010 23.110279
-3.874537 -1.260841 22.263474
-3.844150 -1.258786 22.227194
-3.820234 -1.258838 22.228107
-3.796855 -1.259069 22.232178
-3.773463 -1.259298 22.236223
-3.749523 -1.259346 22.237074
-3.725514 -1.259371 22.237522
-3.695918 -1.257496 22.204409
-3.672522 -1.257720 22.208355
-3.649114 -1.257942 22.212282
-3.625684 -1.258160 22.216125
-3.603169 -1.258700 22.225662
-3.578805 -1.258597 22.223845
-3.555347 -1.258813 22.227667
-3.531822 -1.259009 22.231121
-3.508341 -1.259223 22.234901
-3.484848 -1.259436 22.238657
-3.461343 -1.259647 22.242390
-3.437812 -1.259852 22.246004
-3.408107 -1.257781 22.209440
-3.384609 -1.257987 22.213085
-3.361099 -1.258193 22.216709
-3.337534 -1.258380 22.220020
-3.314002 -1.258583 22.223598
-3.290459 -1.258784 22.227154
-3.266905 -1.258984 22.230684
-3.243321 -1.259176 22.234064
-3.219744 -1.259372 22.237541
-3.196155 -1.259568 22.240990
-3.172390 -1.259696 22.243254
-3.148633 -1.259830 22.245611
-3.125292 -1.260133 22.250971
-3.101661 -1.260323 22.254328
-3.083596 -1.262796 22.297989
-3.059880 -1.262975 22.301149
-3.036173 -1.263161 22.304432
-3.012457 -1.263345 22.307692
-2.991252 -1.264595 22.329756
-2.970543 -1.266076 22.355913
-2.946971 -1.266351 22.360771
-2.923167 -1.266531 22.363941
-2.899354 -1.266709 22.367088
-2.875507 -1.266875 22.370026
-2.851673 -1.267051 22.373117
-2.827829 -1.267224 22.376183
-2.803975 -1.267396 22.379223
-2.779874 -1.267459 22.380323
-2.755838 -1.267552 22.381969
-2.731939 -1.267711 22.384771
-2.708051 -1.267877 22.387714
-2.684153 -1.268042 22.390629
-2.655434 -1.265912 22.353008
-2.631542 -1.266065 22.355709
-2.610806 -1.267753 22.385515
-2.588452 -1.268679 22.401878
-2.564508 -1.268837 22.404665
-2.540539 -1.268985 22.407276
-2.516578 -1.269140 22.410011
-2.492608 -1.269294 22.412725
-2.468630 -1.269446 22.415409
-2.444627 -1.269588 22.417923
-2.420631 -1.269737 22.420557
-2.392292 -1.267588 22.382605
-2.368323 -1.267734 22.385181
-2.340926 -1.266029 22.355074
-2.316150 -1.265720 22.349623
-2.292200 -1.265861 22.352119
-2.268242 -1.266001 22.354589
-2.244263 -1.266132 22.356901
-2.220015 -1.266113 22.356554
-2.195994 -1.266224 22.358519
-2.172009 -1.266358 22.360888
-2.147726 -1.266320 22.360218
-2.123700 -1.266434 22.362226
-2.099695 -1.266563 22.364513
-2.075683 -1.266691 22.366777
-2.051653 -1.266811 22.368893
-2.027626 -1.266936 22.371103
-2.003593 -1.267060 22.373287
-1.979552 -1.267182 22.375446
-1.955495 -1.267296 22.377460
-1.931440 -1.267416 22.379566
-1.907379 -1.267534 22.381647
-1.883311 -1.267650 22.383698
-1.859228 -1.267758 22.385616
-1.835148 -1.267872 22.387621
-1.811060 -1.267984 22.389595
-1.786966 -1.268094 22.391535
-1.762858 -1.268197 22.393362
-1.738389 -1.268039 22.390575
-1.711539 -1.266116 22.356613
-1.687463 -1.266219 22.358438
-1.663376 -1.266317 22.360170
-1.636816 -1.264507 22.328211
-1.615198 -1.266518 22.363722
-1.591099 -1.266616 22.365438
-1.566991 -1.266708 22.367071
-1.540091 -1.264512 22.328295
-1.516021 -1.264606 22.329950
-1.491944 -1.264697 22.331554
-1.467858 -1.264784 22.333088
-1.443772 -1.264873 22.334667
-1.419680 -1.264960 22.336203
-1.395582 -1.265044 22.337692
-1.371284 -1.264948 22.335985
-1.347180 -1.265029 22.337427
-1.323072 -1.265110 22.338856
-1.298959 -1.265189 22.340246
-1.274842 -1.265267 22.341623
-1.250719 -1.265343 22.342960
-1.226593 -1.265418 22.344282
-1.202463 -1.265490 22.345570
-1.178328 -1.265562 22.346838
-1.154354 -1.265813 22.351265
-1.130208 -1.265882 22.352484
-1.108062 -1.268243 22.394173
-1.083864 -1.268309 22.395336
-1.061583 -1.270672 22.437061
-1.037334 -1.270735 22.438173
-1.013081 -1.270796 22.439260
-0.988825 -1.270856 22.440317
-0.964636 -1.271008 22.443001
-0.940436 -1.271153 22.445557
-0.916166 -1.271209 22.446539
-0.891893 -1.271262 22.447491
-0.867617 -1.271315 22.448420
-0.843459 -1.271548 22.452526
-0.819173 -1.271597 22.453402
-0.794885 -1.271645 22.454248
-0.770594 -1.271692 22.455070
-0.747653 -1.274041 22.496553
-0.723313 -1.274085 22.497326
-0.698970 -1.274127 22.498072
-0.674625 -1.274168 22.498787
-0.650277 -1.274207 22.499479
-0.625928 -1.274244 22.500141
-0.602666 -1.276590 22.541557
-0.578268 -1.276624 22.542170
-0.553868 -1.276658 22.542757
-0.529466 -1.276689 22.543312
-0.505062 -1.276719 22.543844
-0.480657 -1.276748 22.544348
-0.455425 -1.274465 22.504047
-0.431060 -1.274491 22.504499
-0.406694 -1.274515 22.504923
-0.382327 -1.274538 22.505323
-0.357311 -1.272253 22.464987
-0.332985 -1.272273 22.465330
-0.308658 -1.272291 22.465649
-0.284331 -1.272307 22.465937
-0.260002 -1.272322 22.466202
-0.235672 -1.272336 22.466442
-0.211342 -1.272348 22.466650
-0.187011 -1.272358 22.466835
-0.162679 -1.272367 22.466995
-0.138347 -1.272374 22.467125
-0.114014 -1.272380 22.467232
-0.089838 -1.274611 22.506618
-0.065467 -1.274693 22.508068
-0.041015 -1.272389 22.467381
-0.016682 -1.272389 22.467382
0.007652 -1.272387 22.467354
0.031985 -1.272384 22.467297
0.056420 -1.274685 22.507927
0.080797 -1.274679 22.507818
0.105174 -1.274671 22.507683
0.129550 -1.274662 22.507519
0.153925 -1.274651 22.507332
0.178333 -1.274877 22.511318
0.203042 -1.276935 22.547661
0.227459 -1.276920 22.547392
0.251881 -1.276929 22.547546
0.276331 -1.277067 22.549988
0.300749 -1.277047 22.549639
0.325166 -1.277026 22.549261
0.349582 -1.277003 22.548859
0.374050 -1.277161 22.551651
0.398467 -1.277135 22.551193
0.423057 -1.277636 22.560032
0.448106 -1.279393 22.591063
0.472562 -1.279363 22.590523
0.497016 -1.279331 22.589962
0.521469 -1.279298 22.589371
0.546207 -1.279936 22.600649
0.571402 -1.281545 22.629047
0.595892 -1.281506 22.628370
0.620381 -1.281467 22.627672
0.644867 -1.281426 22.626949
0.668924 -1.280565 22.611744
0.692578 -1.279021 22.584488
0.717013 -1.278976 22.583693
0.741444 -1.278928 22.582850
0.765874 -1.278880 22.582006
0.790300 -1.278830 22.581112
0.813251 -1.276466 22.539371
0.837627 -1.276412 22.538422
0.862001 -1.276359 22.537476
0.886371 -1.276302 22.536472
0.910739 -1.276245 22.535473
0.935102 -1.276185 22.534416
0.959463 -1.276126 22.533365
0.983679 -1.275881 22.529036
1.008030 -1.275818 22.527931
1.032376 -1.275752 22.526770
1.056719 -1.275687 22.525612
1.081144 -1.275721 22.526213
1.105551 -1.275731 22.526400
1.129884 -1.275659 22.525129
1.154215 -1.275588 22.523869
1.178541 -1.275513 22.522545
1.202864 -1.275438 22.521229
1.227180 -1.275360 22.519852
1.253762 -1.277594 22.559290
1.278114 -1.277513 22.557856
1.302463 -1.277432 22.556437
1.326806 -1.277348 22.554949
1.349428 -1.275640 22.524796
1.372991 -1.274868 22.511148
1.397274 -1.274779 22.509583
1.421558 -1.274694 22.508078
1.445832 -1.274602 22.506462
1.470100 -1.274509 22.504816
1.494363 -1.274414 22.503147
1.518627 -1.274324 22.501545
1.542879 -1.274226 22.499819
1.567126 -1.274127 22.498066
1.591367 -1.274026 22.496292
1.618070 -1.275870 22.528849
1.642810 -1.276134 22.533516
1.667078 -1.276029 22.531656
1.694030 -1.277952 22.565620
1.718711 -1.278132 22.568787
1.743004 -1.278022 22.566841
1.767543 -1.278092 22.568092
1.792083 -1.278162 22.569321
1.819469 -1.280232 22.605873
1.843983 -1.280253 22.606249
1.871565 -1.282376 22.643728
1.896294 -1.282515 22.646177
1.920656 -1.282405 22.644234
1.945273 -1.282465 22.645306
1.969665 -1.282378 22.643759
1.997551 -1.284539 22.681931
2.021927 -1.284419 22.679804
2.046285 -1.284290 22.677532
2.074389 -1.286487 22.716328
2.099077 -1.286540 22.717247
2.123472 -1.286413 22.715008
2.147880 -1.286297 22.712963
2.172527 -1.286325 22.713465
2.196893 -1.286188 22.711046
2.221261 -1.286056 22.708702
2.245610 -1.285915 22.706215
2.270632 -1.286158 22.710518
2.298443 -1.287960 22.742323
2.327033 -1.290154 22.781078
2.351438 -1.290007 22.778477
2.375907 -1.289898 22.776550
2.400568 -1.289894 22.776476
2.424963 -1.289749 22.773911
2.449337 -1.289595 22.771206
2.473702 -1.289440 22.768471
2.498421 -1.289471 22.769007
2.522784 -1.289319 22.766331
2.548526 -1.289868 22.776026
2.576120 -1.291335 22.801929
2.600495 -1.291176 22.799112
2.629623 -1.293357 22.837635
2.654151 -1.293257 22.835859
2.678785 -1.293209 22.835016
2.703557 -1.293229 22.835360
2.727942 -1.293064 22.832460
2.754316 -1.293837 22.846106
2.781691 -1.295062 22.867737
2.806079 -1.294887 22.864649
2.835599 -1.297063 22.903065
2.860216 -1.296978 22.901560
2.884846 -1.296899 22.900177
2.909242 -1.296718 22.896982
2.933833 -1.296627 22.895365
2.958426 -1.296537 22.893785
2.982818 -1.296362 22.890686
3.007176 -1.296175 22.887386
3.034493 -1.297256 22.906477
3.061425 -1.298156 22.922371
3.085796 -1.297965 22.918991
3.110157 -1.297772 22.915588
3.134506 -1.297578 22.912157
3.162297 -1.298800 22.933739
3.188961 -1.299544 22.946877
3.213609 -1.299461 22.945412
3.238131 -1.299329 22.943085
3.262813 -1.299263 22.941910
3.287309 -1.299124 22.939459
3.311632 -1.298919 22.935844
3.335943 -1.298713 22.932203
3.364523 -1.300160 22.957747
3.390680 -1.300655 22.966499
3.414999 -1.300444 22.962770
3.439307 -1.300232 22.959017
3.463650 -1.300035 22.955553
3.487935 -1.299820 22.951756
3.510798 -1.299082 22.938723
3.536469 -1.299386 22.944086
3.560717 -1.299167 22.940212
3.584966 -1.298950 22.936392
3.609189 -1.298728 22.932465
3.633399 -1.298504 22.928509
3.657657 -1.298300 22.924906
3.681844 -1.298073 22.920906
3.711915 -1.299911 22.953354
3.736939 -1.299968 22.954363
3.761668 -1.299922 22.953556
3.785857 -1.299692 22.949492
3.810531 -1.299630 22.948395
3.834729 -1.299408 22.944469
3.858950 -1.299196 22.940727
3.890120 -1.301311 22.978081
3.921223 -1.303378 23.014570
3.946694 -1.303558 23.017750
-3.851785 -1.230249 22.132740
-3.821053 -1.228076 22.093647
-3.797823 -1.228302 22.097710
-3.781439 -1.230759 22.141912
-3.751326 -1.228751 22.105780
-3.728059 -1.228973 22.109777
-3.704711 -1.229171 22.113348
-3.674462 -1.227068 22.075502
-3.651202 -1.227286 22.079430
-3.627930 -1.227503 22.083332
-3.604636 -1.227715 22.087154
-3.582293 -1.228256 22.096888
-3.558029 -1.228142 22.094828
-3.534707 -1.228353 22.098627
-3.511319 -1.228544 22.102064
-3.487974 -1.228753 22.105822
-3.464617 -1.228961 22.109556
-3.441249 -1.229167 22.113268
-3.417854 -1.229366 22.116859
-3.394462 -1.229570 22.120518
-3.371058 -1.229772 22.124153
-3.347642 -1.229972 22.127762
-3.324172 -1.230156 22.131060
-3.300734 -1.230354 22.134623
-3.277085 -1.230475 22.136810
-3.253627 -1.230671 22.140327
-3.230138 -1.230858 22.143694
-3.206657 -1.231050 22.147156
-3.183164 -1.231241 22.150591
-3.159661 -1.231431 22.154005
-3.136113 -1.231607 22.157162
-3.112780 -1.231869 22.161890
-3.089244 -1.232055 22.165234
-3.065696 -1.232240 22.168552
-3.042118 -1.232414 22.171692
-3.024265 -1.234930 22.216949
-3.000642 -1.235111 22.220198
-2.977008 -1.235290 22.223421
-2.958932 -1.237797 22.268528
-2.935322 -1.238011 22.272379
-2.911703 -1.238225 22.276230
-2.887983 -1.238399 22.279364
-2.864229 -1.238562 22.282291
-2.840489 -1.238733 22.285372
-2.816643 -1.238861 22.287670
-2.792808 -1.238996 22.290092
-2.769031 -1.239159 22.293028
-2.745253 -1.239324 22.296003
-2.721446 -1.239480 22.298798
-2.692550 -1.237299 22.259569
-2.668790 -1.237460 22.262470
-2.645019 -1.237620 22.265343
-2.621222 -1.237770 22.268034
-2.597433 -1.237926 22.270857
-2.573636 -1.238082 22.273653
-2.549830 -1.238236 22.276426
-2.525998 -1.238380 22.279022
-2.502174 -1.238532 22.281744
-2.478341 -1.238681 22.284441
-2.454500 -1.238830 22.287109
-2.430635 -1.238969 22.289610
-2.406777 -1.239114 22.292231
-2.378406 -1.236916 22.252686
-2.354577 -1.237059 22.255247
-2.330724 -1.237192 22.257647
-2.306878 -1.237332 22.260159
-2.283025 -1.237470 22.262648
-2.259024 -1.237531 22.263744
-2.235142 -1.237659 22.266043
-2.211266 -1.237793 22.268454
-2.187249 -1.237850 22.269480
-2.163359 -1.237981 22.271833
-2.135796 -1.235990 22.236012
-2.111545 -1.235891 22.234234
-2.087678 -1.236017 22.236513
-2.063803 -1.236142 22.238760
-2.039910 -1.236259 22.240862
-2.016021 -1.236381 22.243061
-1.992125 -1.236502 22.245235
-1.968223 -1.236622 22.247381
-1.944314 -1.236740 22.249517
-1.924023 -1.239192 22.293619
-1.900054 -1.239307 22.295692
-1.876079 -1.239420 22.297735
-1.852088 -1.239527 22.299648
-1.824644 -1.237294 22.259487
-1.800695 -1.237404 22.261450
-1.776738 -1.237511 22.263380
-1.752769 -1.237612 22.265196
-1.728801 -1.237717 22.267082
-1.704827 -1.237820 22.268944
-1.680846 -1.237921 22.270763
-1.653722 -1.235677 22.230389
-1.629775 -1.235776 22.232164
-1.605824 -1.235873 22.233919
-1.581864 -1.235968 22.235626
-1.557896 -1.236058 22.237249
-1.533927 -1.236151 22.238922
-1.509953 -1.236243 22.240574
-1.485972 -1.236332 22.242170
-1.461983 -1.236417 22.243698
-1.437993 -1.236504 22.245268
-1.413998 -1.236589 22.246799
-1.389996 -1.236672 22.248283
-1.365991 -1.236754 22.249760
-1.341954 -1.236810 22.250769
-1.317884 -1.236837 22.251257
-1.293865 -1.236914 22.252642
-1.269843 -1.236990 22.254013
-1.245843 -1.237092 22.255846
-1.221784 -1.237138 22.256664
-1.197821 -1.237285 22.259312
-1.173779 -1.237355 22.260574
-1.149734 -1.237423 22.261805
-1.126597 -1.238494 22.281071
-1.103717 -1.239900 22.306358
-1.079614 -1.239964 22.307520
-1.055507 -1.240027 22.308651
-1.031397 -1.240089 22.309757
-1.009191 -1.242497 22.353092
-0.985027 -1.242556 22.354147
-0.960861 -1.242613 22.355175
-0.936721 -1.242709 22.356899
-0.912574 -1.242799 22.358521
-0.888396 -1.242852 22.359468
-0.864215 -1.242903 22.360395
-0.840083 -1.243029 22.362661
-0.815895 -1.243078 22.363535
-0.791704 -1.243125 22.364378
-0.767510 -1.243170 22.365200
-0.743314 -1.243214 22.365988
-0.719115 -1.243257 22.366758
-0.694913 -1.243298 22.367495
-0.671980 -1.245692 22.410568
-0.646503 -1.243376 22.368896
-0.623473 -1.245767 22.411917
-0.599217 -1.245803 22.412554
-0.574959 -1.245836 22.413162
-0.550698 -1.245869 22.413744
-0.526436 -1.245900 22.414299
-0.502172 -1.245929 22.414831
-0.477906 -1.245957 22.415331
-0.453639 -1.245984 22.415810
-0.429370 -1.246008 22.416256
-0.405100 -1.246032 22.416679
-0.380108 -1.243699 22.374704
-0.355881 -1.243719 22.375072
-0.331653 -1.243738 22.375416
-0.307407 -1.243691 22.374565
-0.283193 -1.243772 22.376022
-0.258945 -1.243710 22.374912
-0.234715 -1.243724 22.375154
-0.210495 -1.243804 22.376596
-0.186261 -1.243815 22.376801
-0.162028 -1.243830 22.377073
-0.137793 -1.243838 22.377205
-0.113558 -1.243844 22.377308
-0.089323 -1.243848 22.377384
-0.065087 -1.243851 22.377438
-0.040851 -1.243852 22.377462
-0.016615 -1.243852 22.377459
0.007621 -1.243850 22.377432
0.031857 -1.243847 22.377375
0.056093 -1.243843 22.377295
0.080480 -1.246192 22.419561
0.104761 -1.246185 22.419426
0.129042 -1.246176 22.419266
0.153322 -1.246165 22.419079
0.177601 -1.246153 22.418863
0.201880 -1.246140 22.418621
0.226212 -1.246427 22.423794
0.250909 -1.248469 22.460520
0.275233 -1.248463 22.460407
0.299570 -1.248508 22.461222
0.323891 -1.248487 22.460846
0.348212 -1.248465 22.460445
0.372535 -1.248456 22.460297
0.396872 -1.248492 22.460939
0.421189 -1.248465 22.460459
0.445505 -1.248437 22.459949
0.470709 -1.250771 22.501945
0.495068 -1.250740 22.501385
0.519424 -1.250708 22.500799
0.543779 -1.250674 22.500183
0.568132 -1.250638 22.499542
0.592482 -1.250601 22.498873
0.616831 -1.250562 22.498178
0.641177 -1.250522 22.497459
0.665521 -1.250480 22.496710
0.689385 -1.249573 22.480387
0.712851 -1.248030 22.452623
0.737141 -1.247983 22.451788
0.761429 -1.247937 22.450945
0.785714 -1.247887 22.450058
0.809996 -1.247838 22.449163
0.834275 -1.247785 22.448215
0.858527 -1.247698 22.446650
0.882769 -1.247601 22.444902
0.907038 -1.247545 22.443903
0.931302 -1.247487 22.442850
0.955565 -1.247428 22.441803
0.979791 -1.247328 22.439991
1.004016 -1.247230 22.438227
1.028265 -1.247165 22.437067
1.052547 -1.247143 22.436672
1.076818 -1.247110 22.436073
1.101058 -1.247043 22.434868
1.125293 -1.246973 22.433603
1.149525 -1.246903 22.432346
1.173752 -1.246829 22.431026
1.197976 -1.246757 22.429720
1.222242 -1.246729 22.429226
1.246486 -1.246681 22.428358
1.270696 -1.246602 22.426933
1.294904 -1.246523 22.425520
1.319105 -1.246441 22.424042
1.343304 -1.246360 22.422581
1.367435 -1.246220 22.420065
1.391597 -1.246112 22.418116
1.415782 -1.246028 22.416616
1.439957 -1.245939 22.415007
1.464126 -1.245848 22.413368
1.488291 -1.245755 22.411705
1.512456 -1.245667 22.410107
1.536610 -1.245571 22.408388
1.560758 -1.245474 22.406649
1.584997 -1.245452 22.406250
1.609142 -1.245358 22.404549
1.635914 -1.247268 22.438923
1.660540 -1.247512 22.443300
1.684706 -1.247407 22.441422
1.708875 -1.247307 22.439621
1.736311 -1.249562 22.480183
1.760603 -1.249523 22.479479
1.784902 -1.249490 22.478886
1.809103 -1.249389 22.477077
1.836589 -1.251531 22.515602
1.860969 -1.251527 22.515530
1.888749 -1.253780 22.556067
1.913123 -1.253744 22.555422
1.937368 -1.253625 22.553284
1.961725 -1.253580 22.552481
1.986062 -1.253525 22.551479
2.013998 -1.255714 22.590866
2.038261 -1.255588 22.588604
2.062773 -1.255617 22.589121
2.090718 -1.257710 22.626776
2.115145 -1.257663 22.625933
2.139426 -1.257532 22.623562
2.163831 -1.257475 22.622543
2.188100 -1.257341 22.620138
2.212370 -1.257211 22.617804
2.236621 -1.257074 22.615328
2.261574 -1.257329 22.619915
2.289430 -1.259175 22.653133
2.314550 -1.259494 22.658867
2.342407 -1.261280 22.690998
2.366710 -1.261134 22.688379
2.391154 -1.261066 22.687155
2.415305 -1.260847 22.683210
2.439620 -1.260717 22.680868
2.464002 -1.260623 22.679182
2.488310 -1.260494 22.676861
2.512686 -1.260402 22.675200
2.536931 -1.260246 22.672398
2.562698 -1.260842 22.683125
2.590296 -1.262320 22.709700
2.619524 -1.264555 22.749924
2.643825 -1.264394 22.747013
2.668279 -1.264307 22.745461
2.692632 -1.264175 22.743084
2.717022 -1.264063 22.741060
2.741289 -1.263895 22.738045
2.770782 -1.266119 22.778053
2.795074 -1.265948 22.774977
2.824708 -1.268178 22.815098
2.849125 -1.268048 22.812752
2.873531 -1.267915 22.810358
2.897831 -1.267738 22.807177
2.922122 -1.267559 22.803968
2.946582 -1.267457 22.802132
2.970876 -1.267286 22.799047
2.995137 -1.267103 22.795761
3.025105 -1.269318 22.835608
3.049417 -1.269143 22.832464
3.073693 -1.268956 22.829102
3.097958 -1.268768 22.825708
3.122212 -1.268578 22.822292
3.150049 -1.269835 22.844913
3.176712 -1.270604 22.858736
3.201102 -1.270458 22.856110
3.225431 -1.270290 22.853098
3.249713 -1.270107 22.849800
3.274148 -1.269986 22.847622
3.298374 -1.269786 22.844021
3.322588 -1.269584 22.840395
3.346789 -1.269381 22.836740
3.370997 -1.269183 22.833181
3.395175 -1.268977 22.829473
3.424138 -1.270549 22.857756
3.445154 -1.269171 22.832966
3.467688 -1.268368 22.818521
3.491820 -1.268157 22.814720
3.515940 -1.267944 22.810894
3.546750 -1.270131 22.850229
3.565399 -1.267962 22.811205
3.588237 -1.267302 22.799337
3.619147 -1.269483 22.838572
3.636424 -1.266884 22.791822
3.667402 -1.269062 22.830999
3.691481 -1.268839 22.826992
3.722584 -1.271018 22.866184
3.746684 -1.270792 22.862122
3.770776 -1.270567 22.858068
3.795080 -1.270415 22.855347
3.819361 -1.270258 22.852516
3.843499 -1.270055 22.848873
3.867536 -1.269823 22.844683
3.898770 -1.271941 22.882786
3.930654 -1.274243 22.924200
-3.829202 -1.199984 22.002974
-3.798705 -1.197882 21.964428
-3.782915 -1.200420 22.010967
-3.759765 -1.200640 22.015001
-3.729386 -1.198540 21.976490
-3.706250 -1.198755 21.980438
-3.682968 -1.198926 21.983568
-3.659814 -1.199140 21.987505
-3.636640 -1.199351 21.991371
-3.613460 -1.199563 21.995251
-3.590268 -1.199773 21.999113
-3.567063 -1.199982 22.002945
-3.543846 -1.200190 22.006758
-3.520618 -1.200397 22.010544
-3.497322 -1.200583 22.013962
-3.474071 -1.200788 22.017708
-3.450793 -1.200985 22.021338
-3.427517 -1.201187 22.025028
-3.404162 -1.201363 22.028257
-3.380863 -1.201562 22.031902
-3.357553 -1.201759 22.035519
-3.334231 -1.201955 22.039112
-3.310855 -1.202134 22.042398
-3.287512 -1.202328 22.045952
-3.264156 -1.202520 22.049475
-3.240790 -1.202711 22.052979
-3.217395 -1.202894 22.056334
-3.194006 -1.203082 22.059782
-3.170607 -1.203269 22.063208
-3.147196 -1.203454 22.066607
-3.123741 -1.203626 22.069750
-3.100373 -1.203833 22.073557
-3.076931 -1.204015 22.076887
-3.053477 -1.204195 22.080194
-3.030054 -1.204390 22.083769
-3.006579 -1.204568 22.087023
-2.983094 -1.204744 22.090254
-2.965324 -1.207250 22.136200
-2.941748 -1.207414 22.139202
-2.923833 -1.209923 22.185209
-2.900217 -1.210094 22.188354
-2.876590 -1.210264 22.191475
-2.852930 -1.210423 22.194391
-2.829283 -1.210591 22.197458
-2.805627 -1.210757 22.200502
-2.781961 -1.210921 22.203518
-2.758276 -1.211080 22.206440
-2.729310 -1.208904 22.166523
-2.705642 -1.209055 22.169300
-2.681983 -1.209214 22.172213
-2.658316 -1.209371 22.175102
-2.629552 -1.207192 22.135138
-2.609186 -1.208864 22.165791
-2.585570 -1.209046 22.169136
-2.558586 -1.207643 22.143404
-2.534919 -1.207793 22.146160
-2.511226 -1.207934 22.148741
-2.487542 -1.208081 22.151445
-2.463849 -1.208227 22.154127
-2.440147 -1.208372 22.156782
-2.416421 -1.208508 22.159266
-2.392665 -1.208631 22.161526
-2.368927 -1.208766 22.164000
-2.345155 -1.208886 22.166197
-2.321388 -1.209011 22.168493
-2.297638 -1.209147 22.170994
-2.273880 -1.209282 22.173471
-2.250114 -1.209416 22.175926
-2.226326 -1.209541 22.178217
-2.198291 -1.207336 22.137787
-2.174547 -1.207465 22.140154
-2.146643 -1.205262 22.099743
-2.122917 -1.205381 22.101929
-2.099540 -1.205702 22.107826
-2.079197 -1.207794 22.146177
-2.051971 -1.205890 22.111259
-2.027982 -1.205865 22.110809
-2.007977 -1.208237 22.154305
-1.984308 -1.208436 22.157942
-1.960499 -1.208552 22.160076
-1.936673 -1.208661 22.162077
-1.912850 -1.208775 22.164162
-1.889021 -1.208887 22.166224
-1.865184 -1.208998 22.168253
-1.841333 -1.209102 22.170156
-1.817484 -1.209210 22.172140
-1.793629 -1.209317 22.174097
-1.769766 -1.209421 22.176018
-1.745891 -1.209520 22.177828
-1.722017 -1.209623 22.179707
-1.694858 -1.207388 22.138729
-1.671017 -1.207486 22.140537
-1.647165 -1.207580 22.142250
-1.623314 -1.207676 22.144022
-1.599457 -1.207772 22.145767
-1.575593 -1.207864 22.147470
-1.551713 -1.207948 22.148996
-1.527821 -1.208024 22.150402
-1.503967 -1.208133 22.152397
-1.480074 -1.208214 22.153881
-1.456187 -1.208303 22.155514
-1.432292 -1.208388 22.157076
-1.408384 -1.208465 22.158474
-1.384457 -1.208527 22.159628
-1.360548 -1.208608 22.161100
-1.336632 -1.208686 22.162531
-1.312713 -1.208763 22.163950
-1.288788 -1.208838 22.165327
-1.264860 -1.208913 22.166693
-1.240927 -1.208985 22.168020
-1.216990 -1.209057 22.169334
-1.193048 -1.209126 22.170610
-1.169126 -1.209220 22.172321
-1.145175 -1.209287 22.173548
-1.121221 -1.209352 22.174755
-1.098198 -1.210448 22.194836
-1.075378 -1.211819 22.219988
-1.051365 -1.211881 22.221115
-1.027350 -1.211941 22.222218
-1.003330 -1.212000 22.223293
-0.979308 -1.212057 22.224342
-0.956235 -1.213322 22.247540
-0.933054 -1.214512 22.269363
-0.908975 -1.214565 22.270338
-0.884892 -1.214617 22.271284
-0.860807 -1.214667 22.272207
-0.836728 -1.214730 22.273359
-0.812644 -1.214788 22.274422
-0.788549 -1.214834 22.275263
-0.764452 -1.214878 22.276079
-0.740367 -1.214946 22.277317
-0.716264 -1.214988 22.278082
-0.692158 -1.215028 22.278820
-0.668050 -1.215067 22.279530
-0.643940 -1.215104 22.280214
-0.619828 -1.215140 22.280872
-0.596866 -1.217525 22.324612
-0.572703 -1.217558 22.325216
-0.548538 -1.217590 22.325798
-0.524370 -1.217620 22.326353
-0.500202 -1.217649 22.326876
-0.476031 -1.217676 22.327377
-0.451859 -1.217702 22.327852
-0.427685 -1.217726 22.328300
-0.402884 -1.215861 22.294094
-0.378601 -1.215420 22.286001
-0.354463 -1.215415 22.285915
-0.330331 -1.215434 22.286259
-0.306198 -1.215451 22.286573
-0.282059 -1.215442 22.286409
-0.257924 -1.215456 22.286671
-0.233789 -1.215469 22.286907
-0.209653 -1.215480 22.287117
-0.185516 -1.215490 22.287296
-0.161379 -1.215499 22.287457
-0.137241 -1.215506 22.287584
-0.113103 -1.215512 22.287689
-0.088967 -1.215541 22.288219
-0.064827 -1.215543 22.288271
-0.040688 -1.215545 22.288296
-0.016549 -1.215544 22.288292
0.007591 -1.215543 22.288265
0.031730 -1.215540 22.288208
0.055869 -1.215536 22.288130
0.080010 -1.215554 22.288473
0.104149 -1.215547 22.288338
0.128287 -1.215538 22.288177
0.152425 -1.215528 22.287991
0.176563 -1.215516 22.287777
0.201088 -1.217855 22.330658
0.225270 -1.217840 22.330389
0.249452 -1.217825 22.330099
0.274162 -1.220163 22.372982
0.298389 -1.220144 22.372635
0.322614 -1.220124 22.372261
0.346838 -1.220102 22.371864
0.371061 -1.220079 22.371437
0.395284 -1.220060 22.371082
0.419511 -1.220053 22.370958
0.443730 -1.220025 22.370453
0.467957 -1.220021 22.370375
0.492173 -1.219991 22.369818
0.516387 -1.219959 22.369232
0.540599 -1.219925 22.368622
0.565902 -1.222251 22.411259
0.590157 -1.222214 22.410591
0.614410 -1.222177 22.409901
0.638241 -1.221334 22.394444
0.661629 -1.219737 22.365168
0.685828 -1.219695 22.364393
0.710020 -1.219643 22.363440
0.734204 -1.219582 22.362322
0.758395 -1.219536 22.361485
0.782583 -1.219488 22.360596
0.806768 -1.219439 22.359707
0.830950 -1.219388 22.358768
0.855113 -1.219312 22.357372
0.879288 -1.219258 22.356377
0.903461 -1.219203 22.355383
0.927629 -1.219146 22.354336
0.951796 -1.219089 22.353292
0.974986 -1.217816 22.329935
1.000117 -1.218969 22.351091
1.024272 -1.218907 22.349939
1.048424 -1.218844 22.348789
1.072571 -1.218778 22.347584
1.096716 -1.218713 22.346384
1.120855 -1.218644 22.345123
1.144992 -1.218576 22.343870
1.169122 -1.218504 22.342556
1.193251 -1.218433 22.341251
1.217398 -1.218383 22.340340
1.241518 -1.218309 22.338984
1.265658 -1.218256 22.338017
1.289752 -1.218163 22.336304
1.313849 -1.218075 22.334684
1.337951 -1.217995 22.333227
1.362018 -1.217887 22.331247
1.386108 -1.217802 22.329695
1.410198 -1.217721 22.328203
1.434277 -1.217634 22.326597
1.458352 -1.217545 22.324968
1.482421 -1.217454 22.323309
1.506491 -1.217367 22.321718
1.530549 -1.217274 22.320007
1.554602 -1.217179 22.318272
1.578649 -1.217083 22.316505
1.602725 -1.217012 22.315197
1.626766 -1.216917 22.313452
1.650830 -1.216841 22.312065
1.674855 -1.216739 22.310198
1.702169 -1.218995 22.351566
1.726228 -1.218890 22.349642
1.753382 -1.220943 22.387281
1.777761 -1.221034 22.388948
1.801894 -1.220956 22.387510
1.826010 -1.220868 22.385910
1.853543 -1.223038 22.425690
1.877781 -1.223005 22.425087
1.905579 -1.225262 22.466471
1.929766 -1.225170 22.464781
1.953908 -1.225052 22.462616
1.978083 -1.224956 22.460871
2.002221 -1.224842 22.458765
2.030262 -1.227088 22.499960
2.054423 -1.226964 22.497681
2.082598 -1.229212 22.538902
2.106801 -1.229091 22.536684
2.131030 -1.228987 22.534779
2.155207 -1.228857 22.532387
2.179379 -1.228726 22.529989
2.203598 -1.228624 22.528124
2.227753 -1.228490 22.525656
2.251900 -1.228354 22.523163
2.280445 -1.230594 22.564238
2.305485 -1.230915 22.570124
2.333310 -1.232701 22.602871
2.357518 -1.232559 22.600266
2.381721 -1.232417 22.597664
2.405925 -1.232278 22.595116
2.430107 -1.232131 22.592430
2.454332 -1.232009 22.590178
2.478502 -1.231862 22.587482
2.502686 -1.231724 22.584963
2.526872 -1.231590 22.582500
2.552569 -1.232188 22.593472
2.580131 -1.233666 22.620577
2.606028 -1.234329 22.632717
2.633557 -1.235744 22.658667
2.657807 -1.235609 22.656197
2.682003 -1.235451 22.653305
2.706249 -1.235319 22.650887
2.730419 -1.235156 22.647882
2.759908 -1.237379 22.688660
2.784105 -1.237212 22.685595
2.813737 -1.239442 22.726486
2.837981 -1.239281 22.723522
2.862254 -1.239134 22.720839
2.886459 -1.238962 22.717670
2.910683 -1.238800 22.714701
2.934898 -1.238637 22.711714
2.959096 -1.238469 22.708643
2.986308 -1.239556 22.728565
3.013233 -1.240506 22.745989
3.037450 -1.240335 22.742857
3.061630 -1.240152 22.739506
3.085800 -1.239968 22.736128
3.109958 -1.239782 22.732721
3.134106 -1.239595 22.729292
3.164373 -1.241813 22.769947
3.188545 -1.241622 22.766457
3.212706 -1.241430 22.762939
3.236936 -1.241268 22.759958
3.261098 -1.241082 22.756554
3.285227 -1.240887 22.752968
3.309344 -1.240690 22.749355
3.333450 -1.240491 22.745718
3.357561 -1.240298 22.742170
3.381661 -1.240103 22.738602
3.405764 -1.239912 22.735100
3.429887 -1.239732 22.731789
3.453865 -1.239501 22.727566
3.477901 -1.239295 22.723778
3.501981 -1.239107 22.720331
3.526008 -1.238903 22.716593
3.550020 -1.238697 22.712811
3.574006 -1.238484 22.708918
3.597981 -1.238271 22.705002
3.622002 -1.238076 22.701433
3.645953 -1.237860 22.697474
3.676991 -1.240037 22.737394
3.700963 -1.239818 22.733377
3.731431 -1.241764 22.769053
3.756129 -1.241776 22.769278
3.780179 -1.241576 22.765602
3.804151 -1.241352 22.761509
3.828255 -1.241175 22.758253
3.852198 -1.240948 22.754087
3.883463 -1.243067 22.792944
3.915078 -1.245271 22.833355
-3.814166 -1.172311 21.916578
-3.784098 -1.170352 21.879967
-3.761093 -1.170568 21.883993
-3.738076 -1.170782 21.888002
-3.715046 -1.170995 21.891985
-3.691628 -1.171088 21.893723
-3.668508 -1.171277 21.897257
-3.645445 -1.171487 21.901176
-3.622002 -1.171576 21.902851
-3.598916 -1.171783 21.906723
-3.575809 -1.171986 21.910517
-3.553058 -1.172310 21.916559
-3.529878 -1.172495 21.920017
-3.506439 -1.172595 21.921904
-3.483529 -1.172875 21.927139
-3.460080 -1.172977 21.929041
-3.436911 -1.173176 21.932749
-3.413729 -1.173372 21.936426
-3.390522 -1.173563 21.939993
-3.367317 -1.173757 21.943624
-3.344100 -1.173950 21.947227
-3.320871 -1.174141 21.950808
-3.297589 -1.174316 21.954077
-3.274339 -1.174506 21.957617
-3.249255 -1.174035 21.948816
-3.221835 -1.172707 21.923988
-3.200521 -1.173599 21.940657
-3.181209 -1.175243 21.971397
-3.157903 -1.175425 21.974806
-3.134586 -1.175606 21.978195
-3.111226 -1.175774 21.981325
-3.088202 -1.176072 21.986900
-3.064851 -1.176250 21.990219
-3.041490 -1.176426 21.993513
-3.018229 -1.176644 21.997585
-2.995020 -1.176885 22.002108
-2.971625 -1.177058 22.005323
-2.948219 -1.177228 22.008514
-2.930199 -1.179570 22.052288
-2.906731 -1.179738 22.055443
-2.883253 -1.179906 22.058573
-2.859765 -1.180072 22.061676
-2.839020 -1.181382 22.086174
-2.817948 -1.182578 22.108524
-2.789217 -1.180552 22.070650
-2.765689 -1.180712 22.073648
-2.742143 -1.180868 22.076553
-2.718596 -1.181026 22.079508
-2.690035 -1.178989 22.041426
-2.666514 -1.179144 22.044323
-2.642983 -1.179297 22.047195
-2.619443 -1.179449 22.050041
-2.595875 -1.179592 22.052708
-2.572317 -1.179742 22.055504
-2.548750 -1.179890 22.058275
-2.524997 -1.179954 22.059473
-2.501318 -1.180054 22.061348
-2.477727 -1.180199 22.064047
-2.454128 -1.180341 22.066717
-2.430519 -1.180483 22.069361
-2.406887 -1.180615 22.071835
-2.383077 -1.180662 22.072716
-2.359389 -1.180772 22.074760
-2.335750 -1.180908 22.077305
-2.312088 -1.181035 22.079681
-2.284200 -1.178983 22.041325
-2.260580 -1.179115 22.043787
-2.236953 -1.179245 22.046225
-2.213305 -1.179367 22.048504
-2.185612 -1.177313 22.010101
-2.161813 -1.177334 22.010498
-2.138173 -1.177444 22.012550
-2.114542 -1.177561 22.014730
-2.090915 -1.177683 22.017010
-2.067281 -1.177803 22.019264
-2.043640 -1.177922 22.021492
-2.019980 -1.178034 22.023573
-1.996521 -1.178266 22.027914
-1.972863 -1.178385 22.030142
-1.949192 -1.178499 22.032269
-1.925514 -1.178612 22.034380
-1.905342 -1.180900 22.077166
-1.881606 -1.181010 22.079218
-1.857863 -1.181118 22.081242
-1.834106 -1.181220 22.083136
-1.810350 -1.181325 22.085112
-1.786331 -1.181259 22.083872
-1.762820 -1.181532 22.088976
-1.738707 -1.181403 22.086565
-1.712086 -1.179543 22.051788
-1.688343 -1.179641 22.053631
-1.664570 -1.179721 22.055119
-1.640667 -1.179709 22.054895
-1.616910 -1.179803 22.056658
-1.593147 -1.179897 22.058399
-1.569377 -1.179987 22.060093
-1.545597 -1.180073 22.061705
-1.521818 -1.180162 22.063366
-1.498033 -1.180250 22.065002
-1.474242 -1.180335 22.066589
-1.450442 -1.180416 22.068106
-1.426642 -1.180499 22.069664
-1.402836 -1.180580 22.071180
-1.379024 -1.180659 22.072657
-1.355208 -1.180737 22.074121
-1.331386 -1.180813 22.075542
-1.307561 -1.180889 22.076958
-1.283730 -1.180963 22.078331
-1.259896 -1.181036 22.079693
-1.236056 -1.181106 22.081015
-1.212213 -1.181176 22.082325
-1.188365 -1.181244 22.083595
-1.164632 -1.181432 22.087097
-1.140774 -1.181497 22.088316
-1.116912 -1.181561 22.089520
-1.093045 -1.181624 22.090693
-1.071157 -1.183875 22.132778
-1.047239 -1.183935 22.133900
-1.023318 -1.183994 22.135000
-0.999393 -1.184051 22.136070
-0.975464 -1.184107 22.137117
-0.951532 -1.184162 22.138136
-0.928505 -1.185374 22.160801
-0.905334 -1.186462 22.181133
-0.881348 -1.186512 22.182076
-0.857359 -1.186561 22.182993
-0.833367 -1.186608 22.183880
-0.809421 -1.186726 22.186077
-0.785454 -1.186820 22.187836
-0.761451 -1.186863 22.188648
-0.737446 -1.186905 22.189432
-0.713438 -1.186946 22.190197
-0.689473 -1.187064 22.192404
-0.665483 -1.187144 22.193893
-0.641465 -1.187180 22.194574
-0.617426 -1.187178 22.194530
-0.593424 -1.187249 22.195860
-0.569400 -1.187281 22.196463
-0.545374 -1.187312 22.197039
-0.521346 -1.187342 22.197588
-0.497317 -1.187370 22.198114
-0.473286 -1.187396 22.198610
-0.449253 -1.187422 22.199083
-0.425219 -1.187445 22.199528
-0.401183 -1.187468 22.199945
-0.377108 -1.187368 22.198084
-0.353042 -1.187288 22.196587
-0.329001 -1.187285 22.196537
-0.304965 -1.187302 22.196852
-0.280929 -1.187318 22.197138
-0.256891 -1.187332 22.197399
-0.232853 -1.187344 22.197634
-0.208813 -1.187355 22.197842
-0.184773 -1.187365 22.198025
-0.160733 -1.187374 22.198183
-0.136692 -1.187380 22.198311
-0.112650 -1.187386 22.198416
-0.088609 -1.187390 22.198490
-0.064567 -1.187393 22.198542
-0.040524 -1.187394 22.198566
-0.016482 -1.187394 22.198563
0.007560 -1.187392 22.198538
0.031602 -1.187390 22.198483
0.055644 -1.187390 22.198494
0.079694 -1.187500 22.200544
0.103738 -1.187493 22.200415
0.127781 -1.187484 22.200253
0.151824 -1.187474 22.200066
0.175866 -1.187463 22.199854
0.199910 -1.187464 22.199877
0.223971 -1.187557 22.201607
0.248078 -1.187850 22.207100
0.272559 -1.189725 22.242142
0.296644 -1.189706 22.241796
0.320727 -1.189686 22.241423
0.345327 -1.191450 22.274389
0.369575 -1.191847 22.281822
0.393699 -1.191823 22.281370
0.417822 -1.191798 22.280893
0.441944 -1.191771 22.280392
0.466111 -1.191863 22.282124
0.490231 -1.191834 22.281567
0.514350 -1.191803 22.280987
0.538467 -1.191770 22.280376
0.562582 -1.191736 22.279741
0.586694 -1.191701 22.279078
0.610867 -1.191785 22.280655
0.634956 -1.191706 22.279171
0.659019 -1.191586 22.276936
0.683123 -1.191545 22.276165
0.707224 -1.191503 22.275383
0.731322 -1.191458 22.274551
0.755419 -1.191414 22.273718
0.779432 -1.191246 22.270575
0.803520 -1.191198 22.269688
0.827605 -1.191148 22.268751
0.851687 -1.191098 22.267815
0.875766 -1.191045 22.266823
0.899842 -1.190992 22.265835
0.923914 -1.190936 22.264791
0.947983 -1.190881 22.263750
0.970250 -1.188619 22.221470
0.994268 -1.188561 22.220379
1.018281 -1.188499 22.219229
1.043361 -1.189657 22.240866
1.068274 -1.190576 22.258062
1.092322 -1.190513 22.256868
1.116365 -1.190445 22.255611
1.140405 -1.190379 22.254364
1.164439 -1.190309 22.253056
1.188471 -1.190239 22.251757
1.212620 -1.190287 22.252655
1.236646 -1.190215 22.251305
1.260665 -1.190139 22.249887
1.284724 -1.190103 22.249216
1.308692 -1.189986 22.247019
1.332699 -1.189908 22.245567
1.356562 -1.189706 22.241789
1.380555 -1.189623 22.240244
1.402624 -1.187914 22.208288
1.425889 -1.187258 22.196022
1.449823 -1.187171 22.194401
1.473751 -1.187083 22.192751
1.497680 -1.186998 22.191170
1.521598 -1.186907 22.189466
1.548374 -1.189015 22.228865
1.572325 -1.188921 22.227108
1.596277 -1.188831 22.225424
1.620381 -1.188854 22.225870
1.644317 -1.188757 22.224039
1.668417 -1.188778 22.224436
1.692351 -1.188682 22.222651
1.716272 -1.188580 22.220736
1.743411 -1.190679 22.259975
1.770404 -1.192621 22.296293
1.794639 -1.192679 22.297369
1.818807 -1.192692 22.297607
1.842968 -1.192699 22.297747
1.870335 -1.194754 22.336161
1.897912 -1.196889 22.376081
1.922191 -1.196917 22.376602
1.946238 -1.196801 22.374441
1.970479 -1.196806 22.374529
1.994524 -1.196694 22.372431
2.018751 -1.196692 22.372393
2.046359 -1.198670 22.409372
2.070718 -1.198721 22.410326
2.098362 -1.200651 22.446404
2.122450 -1.200525 22.444050
2.146748 -1.200519 22.443943
2.170825 -1.200391 22.441553
2.195127 -1.200389 22.441519
2.219189 -1.200258 22.439060
2.243243 -1.200125 22.436579
2.268040 -1.200388 22.441496
2.295588 -1.202086 22.473238
2.320537 -1.202401 22.479134
2.348073 -1.204038 22.509720
2.372179 -1.203899 22.507130
2.396286 -1.203763 22.504593
2.420434 -1.203651 22.502497
2.444697 -1.203598 22.501503
2.468773 -1.203454 22.498817
2.493101 -1.203435 22.498461
2.517157 -1.203287 22.495682
2.542691 -1.203840 22.506035
2.570003 -1.205218 22.531780
2.598896 -1.207303 22.570778
2.623100 -1.207192 22.568697
2.647374 -1.207115 22.567259
2.671577 -1.207008 22.565247
2.695844 -1.206930 22.563803
2.719921 -1.206770 22.560810
2.749074 -1.208845 22.599594
2.773176 -1.208682 22.596542
2.802464 -1.210762 22.635433
2.826610 -1.210604 22.632479
2.851018 -1.210559 22.631645
2.875268 -1.210449 22.629589
2.899523 -1.210343 22.627607
2.923615 -1.210172 22.624397
2.947719 -1.210008 22.621334
2.974699 -1.211017 22.640207
3.001403 -1.211899 22.656693
3.025526 -1.211732 22.653576
3.049611 -1.211554 22.650234
3.073685 -1.211374 22.646868
3.097749 -1.211192 22.643475
3.121802 -1.211009 22.640060
3.149454 -1.212215 22.662592
3.175770 -1.212891 22.675240
3.199834 -1.212704 22.671738
3.223923 -1.212529 22.668463
3.247966 -1.212339 22.664915
3.271997 -1.212148 22.661343
3.296352 -1.212078 22.660042
3.320363 -1.211884 22.656420
3.344379 -1.211695 22.652887
3.368366 -1.211499 22.649206
3.392342 -1.211301 22.645504
3.416352 -1.211118 22.642084
3.440306 -1.210917 22.638338
3.464247 -1.210716 22.634567
3.488176 -1.210512 22.630768
3.512450 -1.210431 22.629248
3.536077 -1.210129 22.623604
3.560202 -1.210001 22.621204
3.584146 -1.209813 22.617699
3.608075 -1.209623 22.614143
3.631934 -1.209412 22.610199
3.661729 -1.211167 22.643015
3.686433 -1.211227 22.644123
3.716508 -1.213038 22.677994
3.741077 -1.213041 22.678038
3.765314 -1.212936 22.676085
3.789214 -1.212725 22.672138
3.813535 -1.212651 22.670742
3.837385 -1.212428 22.666586
3.868221 -1.214402 22.703489
3.899851 -1.216599 22.744553
-3.799191 -1.144836 21.830528
-3.768859 -1.142808 21.791857
-3.745966 -1.143024 21.795979
-3.723703 -1.143437 21.803844
-3.700762 -1.143645 21.807814
-3.677136 -1.143643 21.807772
-3.654107 -1.143828 21.811295
-3.631074 -1.144013 21.814838
-3.607490 -1.144027 21.815096
-3.584497 -1.144229 21.818953
-3.561483 -1.144427 21.822733
-3.538464 -1.144627 21.826536
-3.515434 -1.144825 21.830318
-3.492391 -1.145022 21.834076
-3.469916 -1.145409 21.841457
-3.446218 -1.145395 21.841185
-3.423141 -1.145589 21.844877
-3.400053 -1.145781 21.848543
-3.376938 -1.145967 21.852095
-3.353826 -1.146157 21.855711
-3.330702 -1.146345 21.859301
-3.307567 -1.146532 21.862865
-3.284378 -1.146703 21.866125
-3.261221 -1.146888 21.869650
-3.236317 -1.146456 21.861420
-3.209187 -1.145224 21.837927
-3.187873 -1.146064 21.853947
-3.168464 -1.147608 21.883373
-3.145252 -1.147786 21.886774
-3.122028 -1.147963 21.890144
-3.098762 -1.148126 21.893265
-3.076080 -1.148511 21.900597
-3.052821 -1.148684 21.903902
-3.029552 -1.148856 21.907183
-3.006801 -1.149229 21.914295
-2.983506 -1.149399 21.917526
-2.960201 -1.149567 21.920731
-2.936886 -1.149733 21.923910
-2.913536 -1.149889 21.926884
-2.895322 -1.152091 21.968872
-2.871936 -1.152255 21.971989
-2.848540 -1.152417 21.975080
-2.825111 -1.152568 21.977970
-2.801695 -1.152728 21.981007
-2.778269 -1.152886 21.984020
-2.754834 -1.153043 21.987011
-2.731380 -1.153194 21.989902
-2.703136 -1.151309 21.953947
-2.679695 -1.151453 21.956697
-2.656264 -1.151604 21.959585
-2.632521 -1.151622 21.959921
-2.608896 -1.151692 21.961262
-2.585424 -1.151832 21.963919
-2.561960 -1.151978 21.966703
-2.538488 -1.152122 21.969463
-2.515007 -1.152266 21.972200
-2.491180 -1.152252 21.971939
-2.467551 -1.152330 21.973433
-2.444049 -1.152470 21.976091
-2.420537 -1.152608 21.978725
-2.397002 -1.152737 21.981192
-2.373474 -1.152873 21.983774
-2.346704 -1.151420 21.956072
-2.322279 -1.151100 21.949972
-2.298753 -1.151224 21.952337
-2.271211 -1.149318 21.915985
-2.247314 -1.149236 21.914425
-2.223826 -1.149363 21.916847
-2.200316 -1.149482 21.919111
-2.176812 -1.149606 21.921488
-2.152908 -1.149520 21.919832
-2.129393 -1.149641 21.922153
-2.105858 -1.149755 21.924322
-2.082328 -1.149874 21.926592
-2.058792 -1.149992 21.928837
-2.035247 -1.150108 21.931057
-2.012052 -1.150427 21.937136
-1.988490 -1.150541 21.939306
-1.964921 -1.150653 21.941450
-1.941344 -1.150764 21.943567
-1.917752 -1.150869 21.945557
-1.894502 -1.151184 21.951565
-1.870574 -1.151089 21.949766
-1.847299 -1.151399 21.955679
-1.823676 -1.151498 21.957563
-1.799727 -1.151391 21.955511
-1.776105 -1.151492 21.957453
-1.752476 -1.151592 21.959354
-1.728833 -1.151686 21.961143
-1.705193 -1.151784 21.963009
-1.681546 -1.151880 21.964844
-1.657893 -1.151974 21.966639
-1.633929 -1.151853 21.964325
-1.610270 -1.151945 21.966082
-1.586605 -1.152036 21.967817
-1.563163 -1.152295 21.972752
-1.539250 -1.152209 21.971107
-1.515569 -1.152295 21.972763
-1.491944 -1.152429 21.975307
-1.468456 -1.152674 21.979988
-1.444750 -1.152753 21.981497
-1.421043 -1.152835 21.983047
-1.397330 -1.152914 21.984562
-1.373361 -1.152780 21.982014
-1.349643 -1.152857 21.983477
-1.325919 -1.152932 21.984894
-1.302191 -1.153005 21.986301
-1.278459 -1.153077 21.987669
-1.254722 -1.153148 21.989027
-1.230980 -1.153217 21.990341
-1.207235 -1.153286 21.991644
-1.183702 -1.153563 21.996929
-1.159944 -1.153628 21.998180
-1.136181 -1.153692 21.999397
-1.112619 -1.153966 22.004618
-1.089694 -1.154928 22.022964
-1.066953 -1.156132 22.045921
-1.043129 -1.156191 22.047041
-1.019302 -1.156248 22.048134
-0.995471 -1.156304 22.049202
-0.971636 -1.156359 22.050243
-0.947798 -1.156412 22.051262
-0.923957 -1.156464 22.052250
-0.900112 -1.156514 22.053213
-0.877818 -1.158613 22.093229
-0.853925 -1.158661 22.094147
-0.830029 -1.158707 22.095032
-0.806130 -1.158753 22.095894
-0.782229 -1.158796 22.096725
-0.758463 -1.159050 22.101574
-0.734552 -1.159091 22.102354
-0.710638 -1.159131 22.103115
-0.686722 -1.159170 22.103846
-0.662804 -1.159207 22.104551
-0.638883 -1.159242 22.105230
-0.614960 -1.159277 22.105885
-0.591035 -1.159309 22.106512
-0.567137 -1.159401 22.108259
-0.543179 -1.159371 22.107685
-0.519248 -1.159400 22.108232
-0.495315 -1.159427 22.108757
-0.471380 -1.159453 22.109249
-0.447444 -1.159478 22.109718
-0.423507 -1.159501 22.110165
-0.399568 -1.159523 22.110580
-0.375559 -1.159332 22.106936
-0.351622 -1.159351 22.107300
-0.327684 -1.159369 22.107639
-0.303744 -1.159385 22.107950
-0.279804 -1.159400 22.108238
-0.255410 -1.157363 22.069389
-0.231875 -1.159201 22.104454
-0.207645 -1.157585 22.073622
-0.183708 -1.157395 22.070011
-0.160089 -1.159454 22.109276
-0.136144 -1.159461 22.109404
-0.112199 -1.159467 22.109509
-0.088254 -1.159471 22.109585
-0.064308 -1.159473 22.109636
-0.040362 -1.159474 22.109659
-0.016416 -1.159474 22.109657
0.007530 -1.159473 22.109629
0.031476 -1.159470 22.109575
0.055421 -1.159466 22.109495
0.079368 -1.159471 22.109602
0.103331 -1.159665 22.113293
0.127256 -1.159445 22.109097
0.151203 -1.159454 22.109274
0.175144 -1.159424 22.108698
0.199087 -1.159412 22.108459
0.223034 -1.159425 22.108713
0.247015 -1.159594 22.111944
0.270959 -1.159578 22.111628
0.294903 -1.159560 22.111286
0.318845 -1.159540 22.110914
0.342849 -1.159732 22.114567
0.366926 -1.160127 22.122105
0.391429 -1.161741 22.152876
0.415413 -1.161716 22.152401
0.440174 -1.163748 22.191154
0.464197 -1.163721 22.190628
0.488218 -1.163692 22.190075
0.512238 -1.163661 22.189495
0.536256 -1.163629 22.188887
0.560271 -1.163596 22.188253
0.584285 -1.163562 22.187597
0.608297 -1.163526 22.186913
0.632306 -1.163488 22.186199
0.656391 -1.163587 22.188084
0.680318 -1.163409 22.184694
0.704320 -1.163369 22.183916
0.728319 -1.163325 22.183088
0.752317 -1.163282 22.182257
0.776310 -1.163235 22.181376
0.800302 -1.163189 22.180492
0.824290 -1.163140 22.179562
0.848276 -1.163091 22.178627
0.872258 -1.163040 22.177641
0.894652 -1.160931 22.137426
0.918585 -1.160876 22.136389
0.943346 -1.161844 22.154842
0.966442 -1.160765 22.134264
0.991293 -1.161794 22.153891
1.016083 -1.162704 22.171251
1.040042 -1.162645 22.170113
1.063996 -1.162582 22.168917
1.087948 -1.162520 22.167725
1.111894 -1.162454 22.166473
1.135837 -1.162389 22.165230
1.159775 -1.162320 22.163927
1.183927 -1.162465 22.166681
1.207861 -1.162394 22.165325
1.231792 -1.162323 22.163979
1.255717 -1.162249 22.162571
1.279640 -1.162176 22.161173
1.303556 -1.162099 22.159714
1.327469 -1.162024 22.158268
1.351199 -1.161792 22.153854
1.375026 -1.161651 22.151165
1.398923 -1.161574 22.149687
1.420915 -1.159943 22.118586
1.444133 -1.159351 22.107298
1.467967 -1.159265 22.105658
1.491802 -1.159182 22.104080
1.518312 -1.161147 22.141554
1.539947 -1.159382 22.107887
1.566027 -1.160965 22.138077
1.589884 -1.160877 22.136404
1.613727 -1.160782 22.134602
1.637864 -1.160899 22.136818
1.661700 -1.160801 22.134962
1.685538 -1.160708 22.133184
1.709363 -1.160608 22.131283
1.733498 -1.160719 22.133398
1.760427 -1.162673 22.170649
1.787450 -1.164635 22.208057
