ply
format ascii 1.0
comment generated by convert_depth_to_ply.py
element vertex 1741
property float x
property float y
property float z
end_header
-0.002320 0.155110 0.348666
-0.001363 0.154937 0.348279
-0.000408 0.154654 0.347641
0.000544 0.154500 0.347296
0.001493 0.154309 0.346866
0.002439 0.154027 0.346232
0.003384 0.153863 0.345863
0.004323 0.153577 0.345221
0.005262 0.153361 0.344736
0.006193 0.153048 0.344033
0.007123 0.152769 0.343406
0.008056 0.152628 0.343089
0.008979 0.152335 0.342429
0.009901 0.152089 0.341877
0.010831 0.152000 0.341676
0.011766 0.151987 0.341647
0.012680 0.151727 0.341063
0.013613 0.151712 0.341029
0.014546 0.151696 0.340993
0.015473 0.151629 0.340841
0.016405 0.151611 0.340801
0.017336 0.151592 0.340759
0.018274 0.151623 0.340828
0.019235 0.151838 0.341311
0.020168 0.151826 0.341284
0.021066 0.151559 0.340685
0.022031 0.151780 0.341181
0.022962 0.151755 0.341125
0.023901 0.151780 0.341182
0.024831 0.151754 0.341123
0.025752 0.151675 0.340946
0.026681 0.151647 0.340882
0.027619 0.151668 0.340931
0.028593 0.151884 0.341415
0.029523 0.151853 0.341345
0.030451 0.151820 0.341272
0.031441 0.152084 0.341865
0.032387 0.152129 0.341966
0.033364 0.152312 0.342377
0.034360 0.152573 0.342965
0.035314 0.152635 0.343103
0.036297 0.152815 0.343508
0.037301 0.153075 0.344094
0.038309 0.153335 0.344678
0.039320 0.153595 0.345263
0.040291 0.153693 0.345482
0.041350 0.154113 0.346426
0.042370 0.154371 0.347007
0.043394 0.154630 0.347588
0.044457 0.155018 0.348461
0.045496 0.155305 0.349106
0.046614 0.155847 0.350323
0.047747 0.156415 0.351600
0.048808 0.156729 0.352306
0.050029 0.157533 0.354113
0.051189 0.158122 0.355437
0.052352 0.158694 0.356723
0.053522 0.159267 0.358012
0.054805 0.160152 0.360001
0.056102 0.161043 0.362005
0.057482 0.162138 0.364465
0.059013 0.163616 0.367787
0.061105 0.166572 0.374433
0.065169 0.174717 0.392742
0.067306 0.177516 0.399032
0.068822 0.178612 0.401496
0.070448 0.179957 0.404520
0.072069 0.181248 0.407421
0.073594 0.182258 0.409693
0.075129 0.183265 0.411956
0.076679 0.184280 0.414237
0.078242 0.185293 0.416515
0.079694 0.186018 0.418145
0.081472 0.187473 0.421415
0.084198 0.191039 0.429432
0.085658 0.191675 0.430861
0.086784 0.191555 0.430591
0.087924 0.191468 0.430395
0.089030 0.191312 0.430044
0.090020 0.190913 0.429148
0.091122 0.190758 0.428800
0.092095 0.190341 0.427862
0.093197 0.190199 0.427543
0.094169 0.189796 0.426636
0.095290 0.189702 0.426425
0.096376 0.189539 0.426060
0.097494 0.189444 0.425845
0.098608 0.189343 0.425617
0.099722 0.189245 0.425398
0.100768 0.189021 0.424895
0.101779 0.188737 0.424255
0.102961 0.188773 0.424337
0.104159 0.188838 0.424482
0.105262 0.188731 0.424242
0.106366 0.188627 0.424009
0.107485 0.188552 0.423841
0.108602 0.188476 0.423670
0.109698 0.188365 0.423419
0.110794 0.188257 0.423178
0.112002 0.188339 0.423361
0.113163 0.188341 0.423366
0.114256 0.188231 0.423119
0.115370 0.188157 0.422951
0.116471 0.188064 0.422744
0.117749 0.188255 0.423174
0.118875 0.188202 0.423054
0.120106 0.188315 0.423309
0.121267 0.188318 0.423315
0.122521 0.188464 0.423642
0.123849 0.188719 0.424215
0.124965 0.188648 0.424057
0.126082 0.188582 0.423908
0.127349 0.188738 0.424259
0.128684 0.188992 0.424828
0.130019 0.189241 0.425389
0.131146 0.189186 0.425265
0.132226 0.189064 0.424992
-0.139455 0.199173 0.444871
-0.138325 0.199301 0.445156
-0.137151 0.199367 0.445305
-0.135792 0.199163 0.444849
-0.134607 0.199212 0.444958
-0.133468 0.199331 0.445224
-0.132097 0.199104 0.444717
-0.130960 0.199228 0.444993
-0.129614 0.199032 0.444556
-0.128434 0.199091 0.444688
-0.127294 0.199214 0.444962
-0.126151 0.199333 0.445229
-0.124950 0.199364 0.445297
-0.123804 0.199482 0.445561
-0.122473 0.199304 0.445162
-0.121260 0.199313 0.445183
-0.119978 0.199209 0.444952
-0.118793 0.199267 0.445080
-0.117563 0.199248 0.445039
-0.116296 0.199167 0.444857
-0.115141 0.199277 0.445103
-0.113984 0.199386 0.445347
-0.112918 0.199659 0.445956
-0.111776 0.199800 0.446271
-0.111183 0.200938 0.448813
-0.101311 0.185145 0.413537
-0.095595 0.176675 0.394619
-0.094297 0.176269 0.393712
-0.092928 0.175720 0.392486
-0.091707 0.175441 0.391862
-0.090598 0.175371 0.391707
-0.089468 0.175261 0.391461
-0.088395 0.175259 0.391457
-0.087365 0.175343 0.391645
-0.086334 0.175430 0.391838
-0.085301 0.175513 0.392025
-0.084406 0.175886 0.392858
-0.083395 0.176023 0.393163
-0.082355 0.176103 0.393341
-0.081431 0.176434 0.394081
-0.080405 0.176553 0.394347
-0.079383 0.176683 0.394638
-0.078339 0.176765 0.394820
-0.077291 0.176843 0.394996
-0.076241 0.176918 0.395162
-0.075315 0.177285 0.395983
-0.074284 0.177413 0.396268
-0.073232 0.177495 0.396450
-0.072313 0.177906 0.397368
-0.071261 0.177998 0.397574
-0.070309 0.178345 0.398349
-0.069263 0.178463 0.398613
-0.068313 0.178834 0.399441
-0.067261 0.178948 0.399695
-0.066211 0.179068 0.399964
-0.065247 0.179429 0.400771
-0.064171 0.179493 0.400913
-0.063096 0.179557 0.401057
-0.062125 0.179928 0.401886
-0.061059 0.180032 0.402117
-0.060009 0.180185 0.402459
-0.059010 0.180503 0.403170
-0.058037 0.180913 0.404086
-0.057060 0.181324 0.405004
-0.056067 0.181702 0.405847
-0.055027 0.181942 0.406383
-0.054038 0.182361 0.407319
-0.053043 0.182777 0.408249
-0.052095 0.183377 0.409589
-0.051138 0.183971 0.410916
-0.050224 0.184750 0.412655
-0.049256 0.185360 0.414018
-0.048317 0.186111 0.415696
-0.047345 0.186768 0.417163
-0.046387 0.187518 0.418838
-0.045373 0.188068 0.420067
-0.044328 0.188520 0.421076
-0.043318 0.189147 0.422476
-0.042278 0.189674 0.423653
-0.041217 0.190129 0.424671
-0.040190 0.190779 0.426123
-0.039049 0.190910 0.426413
-0.037939 0.191198 0.427058
-0.036788 0.191298 0.427281
-0.035633 0.191384 0.427473
-0.034470 0.191427 0.427570
-0.033304 0.191461 0.427645
-0.032128 0.191433 0.427583
-0.030962 0.191464 0.427652
-0.029804 0.191554 0.427852
-0.028739 0.192264 0.429439
-0.027522 0.191985 0.428816
-0.026536 0.193358 0.431883
-0.021951 0.167417 0.373941
-0.020718 0.165748 0.370214
-0.019557 0.164512 0.367451
-0.018437 0.163509 0.365212
-0.017336 0.162558 0.363088
-0.016254 0.161694 0.361158
-0.015207 0.161079 0.359784
-0.014171 0.160509 0.358511
-0.013159 0.160151 0.357711
-0.012152 0.159793 0.356912
-0.011134 0.159224 0.355640
-0.010138 0.158880 0.354873
-0.009147 0.158558 0.354154
-0.008152 0.158074 0.353072
-0.007171 0.157771 0.352396
-0.006194 0.157468 0.351718
-0.005220 0.157164 0.351039
-0.004250 0.156859 0.350359
-0.003284 0.156555 0.349679
-0.002322 0.156272 0.349047
-0.001365 0.156224 0.348939
-0.000409 0.155943 0.348312
0.000545 0.155758 0.347899
0.001495 0.155471 0.347259
0.002441 0.155159 0.346561
0.003388 0.155015 0.346240
0.004328 0.154706 0.345550
0.005273 0.154681 0.345494
0.006208 0.154389 0.344841
0.007138 0.154078 0.344147
0.008078 0.154020 0.344017
0.009004 0.153742 0.343397
0.009926 0.153443 0.342729
0.010863 0.153419 0.342674
0.011778 0.153116 0.341999
0.012713 0.153092 0.341945
0.013626 0.152826 0.341350
0.014560 0.152810 0.341314
0.015488 0.152745 0.341170
0.016421 0.152727 0.341130
0.017358 0.152752 0.341185
0.018319 0.152968 0.341668
0.019254 0.152966 0.341663
0.020188 0.152944 0.341614
0.021120 0.152922 0.341564
0.022053 0.152898 0.341511
0.022985 0.152875 0.341460
0.023963 0.153146 0.342065
0.024895 0.153119 0.342006
0.025827 0.153092 0.341944
0.026759 0.153063 0.341880
0.027690 0.153033 0.341814
0.028621 0.153003 0.341746
0.029553 0.152981 0.341697
0.030501 0.153043 0.341835
0.031474 0.153217 0.342223
0.032426 0.153285 0.342376
0.033406 0.153482 0.342816
0.034397 0.153713 0.343331
0.035395 0.153961 0.343886
0.036360 0.154060 0.344108
0.037368 0.154328 0.344705
0.038378 0.154595 0.345301
0.039358 0.154727 0.345596
0.040402 0.155100 0.346430
0.041429 0.155392 0.347081
0.042452 0.155657 0.347674
0.043472 0.155898 0.348213
0.044549 0.156332 0.349181
0.045629 0.156755 0.350127
0.046751 0.157304 0.351351
0.047879 0.157848 0.352567
0.048950 0.158190 0.353332
0.050094 0.158746 0.354574
0.051274 0.159395 0.356023
0.052403 0.159865 0.357073
0.053679 0.160757 0.359065
0.054942 0.161577 0.360897
0.056263 0.162537 0.363041
0.057666 0.163697 0.365632
0.059392 0.165718 0.370146
0.062080 0.170311 0.380404
0.065564 0.176900 0.395122
0.067394 0.178885 0.399556
0.069001 0.180223 0.402543
0.070632 0.181580 0.405576
0.072152 0.182615 0.407887
0.073695 0.183676 0.410256
0.075230 0.184685 0.412511
0.076757 0.185646 0.414656
0.078320 0.186663 0.416929
0.079771 0.187389 0.418551
0.081527 0.188799 0.421700
0.084267 0.192419 0.429785
0.085704 0.193004 0.431091
0.086995 0.193247 0.431634
0.087986 0.192828 0.430699
0.089119 0.192727 0.430474
0.090229 0.192579 0.430143
0.091236 0.192218 0.429335
0.092309 0.192003 0.428857
0.093313 0.191652 0.428072
0.094374 0.191425 0.427565
0.095375 0.191085 0.426805
0.096473 0.190943 0.426489
0.097592 0.190847 0.426274
0.098603 0.190545 0.425599
0.099760 0.190528 0.425561
0.100770 0.190234 0.424904
0.101879 0.190131 0.424674
0.102988 0.190030 0.424449
0.104093 0.189926 0.424216
0.105369 0.190130 0.424673
0.106474 0.190026 0.424440
0.107593 0.189948 0.424266
0.108710 0.189870 0.424091
0.109807 0.189758 0.423840
0.110905 0.189650 0.423599
0.112001 0.189541 0.423356
0.113093 0.189428 0.423103
0.114373 0.189628 0.423552
0.115497 0.189569 0.423419
0.116588 0.189456 0.423167
0.117818 0.189570 0.423422
0.118994 0.189595 0.423478
0.120229 0.189714 0.423742
0.121397 0.189726 0.423769
0.122684 0.189920 0.424203
0.123977 0.190121 0.424652
0.125128 0.190102 0.424609
0.126393 0.190256 0.424954
0.127500 0.190170 0.424762
0.128817 0.190397 0.425269
0.130156 0.190652 0.425837
0.131490 0.190895 0.426382
0.132577 0.190778 0.426120
-0.139037 0.199837 0.443536
-0.137909 0.199963 0.443816
-0.136731 0.200020 0.443941
-0.135387 0.199831 0.443522
-0.134205 0.199879 0.443630
-0.132873 0.199704 0.443241
-0.131703 0.199771 0.443390
-0.130569 0.199895 0.443664
-0.129223 0.199693 0.443217
-0.128079 0.199803 0.443461
-0.126913 0.199880 0.443631
-0.125773 0.200000 0.443897
-0.124631 0.200118 0.444160
-0.123286 0.199910 0.443698
-0.122107 0.199969 0.443829
-0.120963 0.200088 0.444093
-0.119615 0.199869 0.443607
-0.118437 0.199932 0.443746
-0.117209 0.199911 0.443699
-0.115944 0.199826 0.443511
-0.114792 0.199936 0.443756
-0.113621 0.200015 0.443930
-0.112486 0.200159 0.444249
-0.111441 0.200467 0.444934
-0.110613 0.201179 0.446515
-0.107081 0.196933 0.437090
-0.095681 0.177956 0.394972
-0.094123 0.177061 0.392984
-0.092801 0.176593 0.391947
-0.091536 0.176227 0.391133
-0.090333 0.175971 0.390565
-0.089197 0.175840 0.390274
-0.088101 0.175786 0.390155
-0.087081 0.175884 0.390373
-0.086072 0.176007 0.390646
-0.085042 0.176091 0.390832
-0.084012 0.176176 0.391020
-0.082979 0.176257 0.391201
-0.082078 0.176626 0.392019
-0.081068 0.176764 0.392327
-0.080029 0.176843 0.392500
-0.078989 0.176923 0.392679
-0.078077 0.177295 0.393503
-0.077033 0.177373 0.393678
-0.076009 0.177499 0.393956
-0.074962 0.177575 0.394126
-0.074035 0.177944 0.394945
-0.073004 0.178067 0.395217
-0.071958 0.178157 0.395417
-0.071034 0.178559 0.396309
-0.069977 0.178630 0.396468
-0.069031 0.178996 0.397280
-0.067989 0.179117 0.397549
-0.066943 0.179233 0.397804
-0.065988 0.179599 0.398618
-0.064920 0.179665 0.398765
-0.063957 0.180028 0.399571
-0.062889 0.180106 0.399742
-0.061828 0.180205 0.399964
-0.060855 0.180569 0.400770
-0.059794 0.180679 0.401016
-0.058818 0.181059 0.401858
-0.057781 0.181260 0.402304
-0.056810 0.181678 0.403232
-0.055796 0.181973 0.403887
-0.054813 0.182383 0.404797
-0.053817 0.182766 0.405648
-0.052824 0.183177 0.406559
-0.051834 0.183617 0.407535
-0.050882 0.184211 0.408855
-0.049889 0.184683 0.409901
-0.048958 0.185410 0.411515
-0.048039 0.186214 0.413300
-0.047098 0.186976 0.414992
-0.046107 0.187567 0.416303
-0.045114 0.188183 0.417670
-0.044105 0.188762 0.418955
-0.043101 0.189393 0.420355
-0.042042 0.189814 0.421289
-0.041009 0.190373 0.422531
-0.039980 0.190986 0.423891
-0.038853 0.191158 0.424272
-0.037749 0.191450 0.424922
-0.036614 0.191606 0.425267
-0.035456 0.191642 0.425347
-0.034297 0.191676 0.425422
-0.033137 0.191709 0.425496
-0.031977 0.191741 0.425567
-0.030816 0.191772 0.425636
-0.029710 0.192159 0.426495
-0.028595 0.192518 0.427291
-0.027429 0.192553 0.427369
-0.026503 0.194349 0.431355
-0.021929 0.168308 0.373557
-0.020701 0.166665 0.369911
-0.019568 0.165649 0.367656
-0.018422 0.164411 0.364909
-0.017325 0.163495 0.362874
-0.016264 0.162820 0.361376
-0.015216 0.162201 0.360002
-0.014183 0.161666 0.358815
-0.013175 0.161362 0.358141
-0.012163 0.160959 0.357246
-0.011149 0.160439 0.356094
-0.010147 0.160027 0.355178
-0.009156 0.159718 0.354491
-0.008168 0.159393 0.353770
-0.007177 0.158908 0.352695
-0.006206 0.158770 0.352388
-0.005225 0.158297 0.351338
-0.004258 0.158145 0.351002
-0.003290 0.157832 0.350307
-0.002326 0.157540 0.349658
-0.001367 0.157352 0.349242
-0.000409 0.157090 0.348659
0.000546 0.157043 0.348556
0.001498 0.156755 0.347916
0.002446 0.156445 0.347227
0.003393 0.156241 0.346776
0.004335 0.155951 0.346132
0.005278 0.155799 0.345794
0.006214 0.155532 0.345201
0.007158 0.155479 0.345084
0.008087 0.155180 0.344419
0.009017 0.154938 0.343883
0.009953 0.154842 0.343669
0.010873 0.154538 0.342995
0.011811 0.154514 0.342942
0.012729 0.154257 0.342371
0.013660 0.154183 0.342208
0.014572 0.153910 0.341602
0.015502 0.153855 0.341479
0.016435 0.153831 0.341426
0.017368 0.153812 0.341384
0.018306 0.153836 0.341437
0.019271 0.154072 0.341961
0.020211 0.154094 0.342009
0.021145 0.154071 0.341959
0.022078 0.154047 0.341906
0.023011 0.154022 0.341851
0.023983 0.154253 0.342364
0.024917 0.154226 0.342304
0.025850 0.154199 0.342242
0.026783 0.154170 0.342178
0.027715 0.154140 0.342112
0.028654 0.154154 0.342143
0.029635 0.154379 0.342643
0.030567 0.154347 0.342571
0.031521 0.154420 0.342734
0.032510 0.154661 0.343267
0.033491 0.154847 0.343681
0.034445 0.154904 0.343807
0.035429 0.155090 0.344220
0.036431 0.155340 0.344776
0.037404 0.155459 0.345039
0.038454 0.155885 0.345986
0.039469 0.156150 0.346572
0.040482 0.156393 0.347113
0.041465 0.156515 0.347382
0.042531 0.156938 0.348323
0.043558 0.157201 0.348907
0.044633 0.157622 0.349840
0.045752 0.158177 0.351072
0.046831 0.158575 0.351956
0.047930 0.159021 0.352944
0.049074 0.159598 0.354226
0.050226 0.160177 0.355511
0.051385 0.160757 0.356798
0.052552 0.161338 0.358089
0.053805 0.162158 0.359909
0.055093 0.163053 0.361894
0.056427 0.164048 0.364103
0.057830 0.165206 0.366673
0.059579 0.167298 0.371316
0.063004 0.173945 0.386068
0.065796 0.178653 0.396518
0.067471 0.180226 0.400010
0.069083 0.181582 0.403019
0.070716 0.182950 0.406056
0.072236 0.183988 0.408360
0.073759 0.185004 0.410615
0.075296 0.186021 0.412872
0.076848 0.187046 0.415146
0.078390 0.188018 0.417303
0.079841 0.188745 0.418918
0.081758 0.190539 0.422899
0.084177 0.193434 0.429324
0.085650 0.194107 0.430819
0.086945 0.194365 0.431390
0.088084 0.194269 0.431177
0.089200 0.194128 0.430864
0.090188 0.193714 0.429947
0.091317 0.193611 0.429717
0.092392 0.193398 0.429245
0.093396 0.193042 0.428454
0.094502 0.192903 0.428146
0.095468 0.192487 0.427223
0.096589 0.192387 0.427001
0.097681 0.192235 0.426664
0.098797 0.192133 0.426437
0.099748 0.191715 0.425508
0.100860 0.191613 0.425283
0.101970 0.191510 0.425054
0.103080 0.191409 0.424829
0.104187 0.191304 0.424596
0.105466 0.191515 0.425065
0.106572 0.191410 0.424833
0.107691 0.191330 0.424654
0.108808 0.191249 0.424474
0.109893 0.191113 0.424172
0.111005 0.191027 0.423983
0.112102 0.190918 0.423740
0.113196 0.190804 0.423487
0.114480 0.191011 0.423947
0.115569 0.190892 0.423683
0.116694 0.190834 0.423553
0.117928 0.190952 0.423816
0.119094 0.190961 0.423835
0.120186 0.190850 0.423590
0.121502 0.191095 0.424133
0.122762 0.191249 0.424474
0.123919 0.191240 0.424455
0.125243 0.191486 0.425002
0.126326 0.191363 0.424728
0.127654 0.191610 0.425275
0.128939 0.191788 0.425671
0.130279 0.192045 0.426241
0.131615 0.192291 0.426787
0.132703 0.192173 0.426526
-0.138852 0.200832 0.442947
-0.137720 0.200951 0.443210
-0.136323 0.200682 0.442616
-0.134977 0.200483 0.442179
-0.133825 0.200571 0.442373
-0.132473 0.200359 0.441905
-0.131339 0.200477 0.442165
-0.129959 0.200216 0.441590
-0.128834 0.200348 0.441880
-0.127694 0.200459 0.442125
-0.126353 0.200254 0.441672
-0.125397 0.200659 0.442567
-0.124048 0.200439 0.442081
-0.122913 0.200564 0.442357
-0.121740 0.200628 0.442498
-0.120396 0.200408 0.442012
-0.119253 0.200522 0.442265
-0.118006 0.200462 0.442131
-0.116737 0.200363 0.441913
-0.115593 0.200478 0.442167
-0.114431 0.200565 0.442359
-0.113278 0.200670 0.442590
-0.112145 0.200811 0.442902
-0.110992 0.200921 0.443143
-0.110051 0.201420 0.444244
-0.109012 0.201749 0.444970
-0.098276 0.183938 0.405687
-0.094002 0.177950 0.392480
-0.092702 0.177519 0.391529
-0.091330 0.176940 0.390252
-0.090127 0.176677 0.389673
-0.089036 0.176631 0.389571
-0.087842 0.176375 0.389006
-0.086811 0.176446 0.389163
-0.085787 0.176533 0.389354
-0.084760 0.176616 0.389538
-0.083751 0.176738 0.389806
-0.082726 0.176829 0.390008
-0.081694 0.176909 0.390184
-0.080780 0.177249 0.390934
-0.079784 0.177416 0.391302
-0.078748 0.177497 0.391480
-0.077709 0.177573 0.391648
-0.076670 0.177651 0.391821
-0.075632 0.177735 0.392007
-0.074733 0.178150 0.392921
-0.073686 0.178223 0.393081
-0.072762 0.178597 0.393908
-0.071731 0.178717 0.394171
-0.070688 0.178810 0.394376
-0.069746 0.179165 0.395161
-0.068705 0.179276 0.395404
-0.067649 0.179345 0.395558
-0.066720 0.179762 0.396476
-0.065657 0.179827 0.396621
-0.064595 0.179894 0.396767
-0.063654 0.180309 0.397683
-0.062587 0.180373 0.397824
-0.061551 0.180531 0.398172
-0.060567 0.180849 0.398875
-0.059531 0.181021 0.399253
-0.058568 0.181427 0.400149
-0.057569 0.181734 0.400826
-0.056590 0.182117 0.401671
-0.055560 0.182348 0.402180
-0.054577 0.182746 0.403057
-0.053555 0.183026 0.403676
-0.052567 0.183436 0.404580
-0.051617 0.184002 0.405827
-0.050626 0.184443 0.406802
-0.049669 0.185029 0.408094
-0.048712 0.185643 0.409448
-0.047792 0.186426 0.411175
-0.046862 0.187212 0.412907
-0.045867 0.187769 0.414137
-0.044891 0.188437 0.415610
-0.043924 0.189177 0.417241
-0.042884 0.189631 0.418243
-0.041831 0.190052 0.419172
-0.040776 0.190486 0.420130
-0.039729 0.190985 0.421229
-0.038658 0.191397 0.422139
-0.037517 0.191475 0.422311
-0.036430 0.191846 0.423129
-0.035278 0.191882 0.423208
-0.034174 0.192197 0.423902
-0.033034 0.192319 0.424171
-0.031821 0.192011 0.423492
-0.030665 0.192035 0.423544
-0.029563 0.192417 0.424389
-0.028459 0.192813 0.425260
-0.027299 0.192850 0.425344
-0.026378 0.194651 0.429315
-0.021947 0.169512 0.373870
-0.020719 0.167858 0.370222
-0.019552 0.166557 0.367352
-0.018405 0.165299 0.364578
-0.017335 0.164622 0.363084
-0.016254 0.163753 0.361168
-0.015229 0.163365 0.360311
-0.014190 0.162770 0.359000
-0.013178 0.162425 0.358239
-0.012173 0.162104 0.357530
-0.011172 0.161791 0.356841
-0.010157 0.161206 0.355549
-0.009164 0.160863 0.354794
-0.008166 0.160354 0.353671
-0.007192 0.160238 0.353416
-0.006212 0.159925 0.352726
-0.005235 0.159596 0.351998
-0.004258 0.159140 0.350993
-0.003296 0.159101 0.350907
-0.002330 0.158792 0.350225
-0.001369 0.158622 0.349852
-0.000410 0.158348 0.349246
0.000546 0.158191 0.348900
0.001499 0.157879 0.348212
0.002450 0.157705 0.347829
0.003400 0.157544 0.347473
0.004343 0.157247 0.346818
0.005287 0.157057 0.346398
0.006230 0.156910 0.346075
0.007170 0.156723 0.345662
0.008100 0.156402 0.344954
0.009038 0.156282 0.344689
0.009962 0.155964 0.343989
0.010903 0.155941 0.343939
0.011824 0.155665 0.343328
0.012760 0.155609 0.343207
0.013696 0.155560 0.343098
0.014609 0.155274 0.342467
0.015519 0.154995 0.341851
0.016449 0.154936 0.341721
0.017383 0.154917 0.341679
0.018322 0.154937 0.341724
0.019255 0.154917 0.341678
0.020228 0.155196 0.342295
0.021163 0.155174 0.342247
0.022097 0.155150 0.342194
0.023032 0.155138 0.342166
0.024004 0.155362 0.342660
0.024949 0.155399 0.342743
0.025923 0.155610 0.343209
0.026852 0.155546 0.343067
0.027753 0.155330 0.342590
0.028687 0.155305 0.342535
0.029661 0.155489 0.342941
0.030596 0.155465 0.342889
0.031588 0.155726 0.343465
0.032545 0.155803 0.343632
0.033522 0.155972 0.344006
0.034481 0.156046 0.344169
0.035460 0.156204 0.344518
0.036423 0.156286 0.344700
0.037475 0.156739 0.345697
0.038488 0.157005 0.346285
0.039503 0.157271 0.346872
0.040517 0.157518 0.347417
0.041543 0.157801 0.348040
0.042603 0.158195 0.348910
0.043639 0.158487 0.349553
0.044753 0.159045 0.350784
0.045839 0.159478 0.351740
0.046925 0.159895 0.352659
0.048066 0.160478 0.353945
0.049162 0.160894 0.354861
0.050284 0.161373 0.355918
0.051440 0.161942 0.357174
0.052701 0.162818 0.359105
0.053879 0.163407 0.360404
0.055182 0.164346 0.362477
0.056560 0.165472 0.364958
0.058082 0.166973 0.368269
0.060179 0.170049 0.375053
0.063826 0.177325 0.391102
0.065803 0.179802 0.396564
0.067529 0.181521 0.400355
0.069142 0.182887 0.403368
0.070760 0.184221 0.406312
0.072298 0.185311 0.408715
0.073823 0.186334 0.410972
0.075361 0.187359 0.413231
0.076915 0.188391 0.415508
0.078461 0.189374 0.417677
0.080051 0.190436 0.420019
0.082143 0.192645 0.424890
0.084106 0.194492 0.428964
0.085560 0.195128 0.430366
0.086852 0.195381 0.430925
0.088161 0.195667 0.431556
0.089300 0.195572 0.431347
0.090420 0.195439 0.431053
0.091379 0.194965 0.430008
0.092476 0.194794 0.429631
0.093479 0.194433 0.428834
0.094544 0.194208 0.428338
0.095553 0.193874 0.427601
0.096666 0.193757 0.427344
0.097770 0.193625 0.427052
0.098888 0.193522 0.426826
0.099941 0.193298 0.426332
0.100950 0.192995 0.425662
0.102061 0.192891 0.425433
0.103172 0.192789 0.425208
0.104280 0.192683 0.424976
0.105472 0.192735 0.425090
0.106670 0.192796 0.425223
0.107773 0.192685 0.424980
0.108893 0.192606 0.424806
0.110005 0.192515 0.424605
0.111105 0.192406 0.424364
0.112204 0.192296 0.424122
0.113298 0.192182 0.423870
0.114586 0.192395 0.424340
0.115686 0.192292 0.424111
0.116800 0.192212 0.423937
0.118090 0.192423 0.424400
0.119180 0.192304 0.424139
0.120453 0.192482 0.424532
0.121588 0.192437 0.424433
0.122914 0.192695 0.425000
0.124033 0.192623 0.424843
0.125330 0.192829 0.425296
0.126442 0.192748 0.425117
0.127741 0.192951 0.425566
0.129060 0.193181 0.426072
0.130402 0.193440 0.426644
0.131740 0.193688 0.427191
0.132829 0.193570 0.426930
-0.138449 0.201505 0.441662
-0.137322 0.201626 0.441927
-0.135970 0.201417 0.441468
-0.134585 0.201154 0.440892
-0.133436 0.201243 0.441088
-0.132084 0.201026 0.440610
-0.130927 0.201102 0.440779
-0.129578 0.200882 0.440295
-0.128425 0.200966 0.440479
-0.127077 0.200743 0.439990
-0.125949 0.200865 0.440259
-0.124817 0.200985 0.440522
-0.123683 0.201104 0.440782
-0.122544 0.201215 0.441026
-0.121385 0.201298 0.441207
-0.120042 0.201072 0.440712
-0.118892 0.201169 0.440926
-0.117535 0.200914 0.440365
-0.116365 0.200978 0.440506
-0.115225 0.201093 0.440759
-0.114080 0.201204 0.441001
-0.112933 0.201313 0.441241
-0.111596 0.201082 0.440734
-0.110449 0.201191 0.440974
-0.109512 0.201691 0.442069
-0.108248 0.201593 0.441855
-0.104341 0.196513 0.430720
-0.093921 0.178912 0.392142
-0.092499 0.178242 0.390673
-0.091225 0.177845 0.389803
-0.089869 0.177276 0.388555
-0.088768 0.177203 0.388396
-0.087583 0.176959 0.387862
-0.086556 0.177032 0.388020
-0.085388 0.176815 0.387545
-0.084367 0.176898 0.387728
-0.083344 0.176983 0.387914
-0.082461 0.177369 0.388759
-0.081449 0.177484 0.389012
-0.080424 0.177574 0.389208
-0.079392 0.177652 0.389380
-0.078361 0.177732 0.389556
-0.077460 0.178114 0.390392
-0.076441 0.178233 0.390653
-0.075404 0.178310 0.390821
-0.074365 0.178386 0.390989
-0.073450 0.178765 0.391820
-0.072423 0.178879 0.392070
-0.071378 0.178953 0.392232
-0.070468 0.179373 0.393151
-0.069419 0.179445 0.393309
-0.068382 0.179550 0.393540
-0.067447 0.179933 0.394380
-0.066391 0.179999 0.394524
-0.065446 0.180373 0.395345
-0.064402 0.180483 0.395585
-0.063341 0.180546 0.395724
-0.062279 0.180610 0.395864
-0.061335 0.181025 0.396772
-0.060269 0.181087 0.396909
-0.059307 0.181471 0.397750
-0.058285 0.181682 0.398212
-0.057285 0.181973 0.398850
-0.056320 0.182386 0.399755
-0.055350 0.182799 0.400661
-0.054314 0.183006 0.401115
-0.053291 0.183266 0.401685
-0.052307 0.183676 0.402584
-0.051363 0.184245 0.403830
-0.050377 0.184685 0.404795
-0.049424 0.185272 0.406081
-0.048472 0.185886 0.407428
-0.047522 0.186536 0.408853
-0.046544 0.187108 0.410106
-0.045607 0.187877 0.411791
-0.044666 0.188666 0.413520
-0.043633 0.189102 0.414477
-0.042672 0.189878 0.416177
-0.041625 0.190300 0.417102
-0.040572 0.190721 0.418026
-0.039530 0.191223 0.419124
-0.038452 0.191574 0.419894
-0.037375 0.191948 0.420713
-0.036250 0.192096 0.421039
-0.035154 0.192410 0.421727
-0.034022 0.192541 0.422015
-0.032872 0.192575 0.422088
-0.031664 0.192265 0.421409
-0.030569 0.192638 0.422226
-0.029417 0.192667 0.422291
-0.028320 0.193073 0.423179
-0.027164 0.193100 0.423239
-0.026197 0.194525 0.426362
-0.021961 0.170682 0.374102
-0.020733 0.169028 0.370477
-0.019566 0.167721 0.367613
-0.018422 0.166486 0.364907
-0.017348 0.165776 0.363350
-0.016265 0.164892 0.361412
-0.015243 0.164545 0.360653
-0.014203 0.163943 0.359333
-0.013191 0.163599 0.358578
-0.012185 0.163285 0.357890
-0.011169 0.162764 0.356749
-0.010184 0.162646 0.356489
-0.009173 0.162025 0.355129
-0.008184 0.161711 0.354439
-0.007199 0.161396 0.353749
-0.006218 0.161080 0.353058
-0.005240 0.160764 0.352365
-0.004266 0.160448 0.351672
-0.003299 0.160251 0.351240
-0.002332 0.159960 0.350603
-0.001371 0.159809 0.350272
-0.000411 0.159627 0.349874
0.000547 0.159333 0.349227
0.001501 0.159039 0.348584
0.002453 0.158843 0.348155
0.003403 0.158683 0.347803
0.004347 0.158382 0.347144
0.005298 0.158361 0.347098
0.006238 0.158082 0.346486
0.007176 0.157853 0.345985
0.008118 0.157730 0.345714
0.009047 0.157410 0.345014
0.009978 0.157189 0.344528
0.010914 0.157078 0.344285
0.011855 0.157056 0.344236
0.012779 0.156824 0.343729
0.013712 0.156726 0.343514
0.014630 0.156475 0.342963
0.015560 0.156380 0.342756
0.016472 0.156122 0.342191
0.017404 0.156074 0.342086
0.018339 0.156054 0.342042
0.019306 0.156301 0.342583
0.020242 0.156279 0.342534
0.021182 0.156293 0.342565
0.022117 0.156269 0.342512
0.023052 0.156244 0.342457
0.024028 0.156488 0.342993
0.024968 0.156496 0.343010
0.025948 0.156736 0.343537
0.026838 0.156439 0.342884
0.027819 0.156677 0.343407
0.028755 0.156646 0.343340
0.029691 0.156622 0.343286
0.030683 0.156887 0.343868
0.031620 0.156863 0.343814
0.032575 0.156927 0.343956
0.033554 0.157100 0.344333
0.034514 0.157173 0.344494
0.035519 0.157448 0.345097
0.036523 0.157699 0.345647
0.037535 0.157974 0.346249
0.038556 0.158271 0.346900
0.039569 0.158523 0.347452
0.040591 0.158796 0.348051
0.041621 0.159089 0.348693
0.042692 0.159520 0.349638
0.043761 0.159926 0.350529
0.044839 0.160347 0.351451
0.045926 0.160783 0.352407
0.047062 0.161369 0.353690
0.048124 0.161680 0.354372
0.049261 0.162229 0.355575
0.050417 0.162817 0.356865
0.051581 0.163407 0.358157
0.052761 0.164025 0.359512
0.054037 0.164913 0.361459
0.055333 0.165830 0.363469
0.056725 0.166997 0.366027
0.058352 0.168802 0.369981
0.061307 0.174322 0.382082
0.064195 0.179471 0.393367
0.065869 0.181109 0.396958
0.067577 0.182790 0.400641
0.069194 0.184170 0.403667
0.070827 0.185553 0.406698
0.072358 0.186627 0.409051
0.073887 0.187664 0.411325
0.075433 0.188714 0.413626
0.076970 0.189709 0.415807
0.078692 0.191126 0.418911
0.080582 0.192902 0.422805
0.082521 0.194744 0.426843
0.083858 0.195135 0.427700
0.085327 0.195816 0.429193
0.086766 0.196412 0.430498
0.087947 0.196417 0.430510
0.089216 0.196613 0.430939
0.090354 0.196522 0.430739
0.091491 0.196429 0.430536
0.092620 0.196322 0.430301
0.093570 0.195843 0.429251
0.094637 0.195619 0.428760
0.095645 0.195279 0.428015
0.096768 0.195178 0.427793
0.097867 0.195034 0.427477
0.098986 0.194930 0.427251
0.100040 0.194703 0.426753
0.101152 0.194593 0.426513
0.102161 0.194290 0.425848
0.103273 0.194188 0.425623
0.104382 0.194082 0.425391
0.105669 0.194306 0.425882
0.106777 0.194200 0.425650
0.107882 0.194089 0.425406
0.108987 0.193981 0.425171
0.110113 0.193913 0.425022
0.111214 0.193804 0.424782
0.112314 0.193693 0.424540
0.113535 0.193792 0.424757
0.114702 0.193798 0.424770
0.115821 0.193724 0.424607
0.116915 0.193610 0.424356
0.118210 0.193826 0.424831
0.119322 0.193742 0.424646
0.120414 0.193628 0.424396
0.121734 0.193879 0.424946
0.123002 0.194041 0.425302
0.124336 0.194305 0.425881
0.125484 0.194277 0.425818
0.126568 0.194151 0.425542
0.127872 0.194360 0.426001
0.129193 0.194592 0.426509
0.130536 0.194853 0.427081
0.131875 0.195103 0.427630
0.132997 0.195031 0.427471
-0.138035 0.202156 0.440342
-0.136911 0.202276 0.440605
-0.135560 0.202061 0.440137
-0.134395 0.202124 0.440272
-0.133015 0.201859 0.439696
-0.131685 0.201668 0.439279
-0.130504 0.201702 0.439353
-0.129186 0.201523 0.438964
-0.128062 0.201647 0.439234
-0.126913 0.201733 0.439422
-0.125567 0.201506 0.438926
-0.124439 0.201626 0.439187
-0.123309 0.201744 0.439447
-0.122173 0.201857 0.439692
-0.121020 0.201943 0.439880
-0.119677 0.201712 0.439375
-0.118516 0.201783 0.439531
-0.117178 0.201552 0.439028
-0.116040 0.201665 0.439273
-0.114877 0.201737 0.439431
-0.113736 0.201848 0.439672
-0.112593 0.201957 0.439910
-0.111256 0.201720 0.439393
-0.110101 0.201807 0.439584
-0.109066 0.202122 0.440269
-0.108020 0.202421 0.440921
-0.107220 0.203195 0.442606
-0.097231 0.186372 0.405961
-0.092399 0.179160 0.390252
-0.091070 0.178649 0.389140
-0.089750 0.178146 0.388044
-0.088505 0.177780 0.387246
-0.087317 0.177522 0.386684
-0.086294 0.177595 0.386844
-0.085127 0.177373 0.386361
-0.084109 0.177457 0.386543
-0.083089 0.177542 0.386728
-0.082068 0.177624 0.386906
-0.081044 0.177704 0.387080
-0.080160 0.178096 0.387934
-0.079132 0.178174 0.388104
-0.078121 0.178293 0.388363
-0.077225 0.178680 0.389206
-0.076192 0.178758 0.389377
-0.075157 0.178833 0.389540
-0.074137 0.178948 0.389791
-0.073099 0.179021 0.389949
-0.072185 0.179404 0.390784
-0.071159 0.179516 0.391028
-0.070124 0.179610 0.391233
-0.069191 0.179970 0.392017
-0.068157 0.180077 0.392249
-0.067109 0.180147 0.392401
-0.066175 0.180532 0.393242
-0.065133 0.180630 0.393455
-0.064190 0.181011 0.394284
-0.063146 0.181113 0.394507
-0.062087 0.181177 0.394647
-0.061056 0.181325 0.394968
-0.060083 0.181655 0.395688
-0.059051 0.181815 0.396036
-0.058066 0.182130 0.396722
-0.057109 0.182543 0.397622
-0.056075 0.182722 0.398012
-0.055072 0.183014 0.398647
-0.054101 0.183426 0.399544
-0.053070 0.183643 0.400017
-0.052087 0.184043 0.400889
-0.051111 0.184483 0.401847
-0.050123 0.184902 0.402759
-0.049176 0.185489 0.404038
-0.048228 0.186104 0.405378
-0.047310 0.186866 0.407037
-0.046305 0.187310 0.408004
-0.045377 0.188097 0.409719
-0.044441 0.188886 0.411439
-0.043410 0.189308 0.412358
-0.042458 0.190100 0.414082
-0.041415 0.190522 0.415002
-0.040367 0.190944 0.415921
-0.039331 0.191447 0.417016
-0.038271 0.191861 0.417919
-0.037136 0.191908 0.418021
-0.036068 0.192320 0.418918
-0.034984 0.192673 0.419687
-0.033851 0.192766 0.419889
-0.032706 0.192799 0.419961
-0.031561 0.192831 0.420031
-0.030415 0.192862 0.420098
-0.029320 0.193228 0.420895
-0.028225 0.193625 0.421761
-0.027027 0.193326 0.421108
-0.025954 0.193928 0.422420
-0.021943 0.171604 0.373794
-0.020717 0.169950 0.370190
-0.019551 0.168638 0.367334
-0.018437 0.167664 0.365211
-0.017367 0.166988 0.363740
-0.016307 0.166347 0.362341
-0.015256 0.165712 0.360959
-0.014215 0.165102 0.359631
-0.013202 0.164758 0.358882
-0.012196 0.164442 0.358194
-0.011192 0.164117 0.357485
-0.010194 0.163809 0.356815
-0.009187 0.163284 0.355670
-0.008190 0.162845 0.354714
-0.007205 0.162539 0.354048
-0.006227 0.162325 0.353582
-0.005248 0.162013 0.352902
-0.004273 0.161700 0.352221
-0.003302 0.161407 0.351582
-0.002334 0.161093 0.350898
-0.001373 0.161075 0.350858
-0.000411 0.160794 0.350247
0.000548 0.160594 0.349812
0.001505 0.160442 0.349480
0.002457 0.160125 0.348790
0.003406 0.159822 0.348130
0.004355 0.159633 0.347719
0.005302 0.159484 0.347394
0.006246 0.159273 0.346935
0.007191 0.159157 0.346681
0.008125 0.158847 0.346006
0.009060 0.158628 0.345529
0.009999 0.158505 0.345261
0.010923 0.158191 0.344577
0.011865 0.158170 0.344531
0.012808 0.158155 0.344499
0.013727 0.157865 0.343866
0.014664 0.157815 0.343757
0.015580 0.157558 0.343199
0.016511 0.157471 0.343009
0.017449 0.157452 0.342967
0.018386 0.157431 0.342922
0.019323 0.157410 0.342876
0.020259 0.157388 0.342827
0.021200 0.157399 0.342852
0.022174 0.157648 0.343394
0.023111 0.157623 0.343339
0.024048 0.157596 0.343282
0.024993 0.157628 0.343350
0.025970 0.157849 0.343832
0.026907 0.157820 0.343768
0.027843 0.157789 0.343702
0.028780 0.157765 0.343648
0.029773 0.158035 0.344237
0.030709 0.158001 0.344164
0.031660 0.158043 0.344254
0.032644 0.158241 0.344686
0.033647 0.158514 0.345281
0.034605 0.158573 0.345408
0.035591 0.158748 0.345791
0.036601 0.159020 0.346382
0.037613 0.159290 0.346972
0.038629 0.159560 0.347560
0.039652 0.159844 0.348179
0.040670 0.160099 0.348733
0.041733 0.160512 0.349633
0.042764 0.160788 0.350233
0.043880 0.161361 0.351481
0.044923 0.161651 0.352115
0.046056 0.162243 0.353403
0.047148 0.162672 0.354337
0.048248 0.163109 0.355289
0.049314 0.163417 0.355961
0.050560 0.164296 0.357875
0.051727 0.164891 0.359171
0.052902 0.165488 0.360471
0.054190 0.166411 0.362483
0.055569 0.167574 0.365015
0.056985 0.168808 0.367703
0.058905 0.171465 0.373492
0.062064 0.177576 0.386801
0.064314 0.180923 0.394092
0.066019 0.182653 0.397861
0.067637 0.184091 0.400994
0.069268 0.185516 0.404098
0.070779 0.186582 0.406419
0.072420 0.187952 0.409402
0.073958 0.189015 0.411719
0.075625 0.190374 0.414679
0.077338 0.191804 0.417794
0.079072 0.193244 0.420931
0.080838 0.194720 0.424147
0.082289 0.195407 0.425642
0.083600 0.195748 0.426384
0.085049 0.196397 0.427797
0.086372 0.196740 0.428545
0.087679 0.197038 0.429195
0.089119 0.197624 0.430472
0.090260 0.197541 0.430290
0.091571 0.197826 0.430911
0.092686 0.197687 0.430608
0.093815 0.197581 0.430377
0.094767 0.197107 0.429345
0.095729 0.196668 0.428390
0.096846 0.196554 0.428139
0.097956 0.196427 0.427863
0.099075 0.196323 0.427637
0.100129 0.196092 0.427135
0.101137 0.195779 0.426452
0.102251 0.195674 0.426223
0.103364 0.195571 0.425999
0.104474 0.195464 0.425767
0.105765 0.195695 0.426269
0.106875 0.195589 0.426038
0.107980 0.195477 0.425795
0.109086 0.195369 0.425559
0.110211 0.195296 0.425400
0.111314 0.195186 0.425161
0.112414 0.195075 0.424919
0.113638 0.195178 0.425143
0.114808 0.195186 0.425160
0.115925 0.195107 0.424988
0.117224 0.195331 0.425477
0.118319 0.195215 0.425223
0.119436 0.195137 0.425054
0.120733 0.195350 0.425519
0.121824 0.195231 0.425259
0.123154 0.195493 0.425829
0.124451 0.195698 0.426275
0.125598 0.195666 0.426205
0.126904 0.195879 0.426670
0.128221 0.196106 0.427164
0.129329 0.196012 0.426960
0.130669 0.196268 0.427518
0.132033 0.196554 0.428140
0.133351 0.196769 0.428608
-0.137624 0.202801 0.439028
-0.136507 0.202929 0.439306
-0.135378 0.203041 0.439548
-0.133992 0.202766 0.438951
-0.132637 0.202533 0.438448
-0.131287 0.202303 0.437950
-0.130112 0.202341 0.438033
-0.128986 0.202458 0.438284
-0.127679 0.202290 0.437920
-0.126532 0.202373 0.438101
-0.125408 0.202496 0.438368
-0.124062 0.202259 0.437855
-0.122934 0.202378 0.438113
-0.121787 0.202466 0.438302
-0.120443 0.202226 0.437782
-0.119314 0.202345 0.438040
-0.118159 0.202421 0.438205
-0.116950 0.202407 0.438174
-0.115687 0.202297 0.437937
-0.114552 0.202413 0.438187
-0.113404 0.202506 0.438390
-0.112252 0.202595 0.438581
-0.110917 0.202351 0.438054
-0.109777 0.202461 0.438292
-0.108723 0.202735 0.438885
-0.107700 0.203074 0.439618
-0.106799 0.203651 0.440869
-0.104766 0.202060 0.437424
-0.092235 0.179949 0.389557
-0.090851 0.179324 0.388204
-0.089653 0.179056 0.387624
-0.088285 0.178437 0.386284
-0.087052 0.178079 0.385508
-0.086032 0.178154 0.385671
-0.084867 0.177926 0.385179
-0.083851 0.178010 0.385360
-0.082835 0.178095 0.385544
-0.081816 0.178177 0.385721
-0.080796 0.178257 0.385894
-0.079897 0.178610 0.386658
-0.078892 0.178733 0.386924
-0.077880 0.178844 0.387165
-0.076854 0.178924 0.387338
-0.075953 0.179301 0.388155
-0.074928 0.179393 0.388354
-0.073909 0.179504 0.388594
-0.073003 0.179893 0.389437
-0.071965 0.179965 0.389593
-0.070940 0.180073 0.389826
-0.069909 0.180168 0.390031
-0.068980 0.180533 0.390822
-0.067948 0.180635 0.391043
-0.066902 0.180705 0.391194
-0.065874 0.180824 0.391451
-0.064923 0.181162 0.392183
-0.063882 0.181256 0.392387
-0.062854 0.181394 0.392685
-0.061896 0.181738 0.393431
-0.060868 0.181887 0.393754
-0.059890 0.182193 0.394416
-0.058836 0.182277 0.394596
-0.057880 0.182671 0.395449
-0.056926 0.183086 0.396348
-0.055902 0.183289 0.396788
-0.054896 0.183559 0.397372
-0.053870 0.183772 0.397834
-0.052859 0.184048 0.398431
-0.051878 0.184442 0.399283
-0.050899 0.184857 0.400181
-0.049918 0.185286 0.401111
-0.048979 0.185893 0.402426
-0.047985 0.186314 0.403337
-0.047030 0.186908 0.404622
-0.046104 0.187652 0.406233
-0.045149 0.188309 0.407655
-0.044217 0.189099 0.409366
-0.043192 0.189522 0.410280
-0.042244 0.190314 0.411996
-0.041227 0.190834 0.413120
-0.040166 0.191169 0.413846
-0.039141 0.191700 0.414996
-0.038080 0.192086 0.415832
-0.037006 0.192424 0.416564
-0.035886 0.192536 0.416806
-0.034817 0.192943 0.417686
-0.033732 0.193277 0.418410
-0.032599 0.193360 0.418590
-0.031457 0.193388 0.418651
-0.030315 0.193419 0.418718
-0.029227 0.193811 0.419566
-0.028089 0.193891 0.419740
-0.026991 0.194262 0.420542
-0.025762 0.193683 0.419289
-0.021998 0.173103 0.374738
-0.020768 0.171427 0.371110
-0.019567 0.169824 0.367638
-0.018453 0.168842 0.365513
-0.017381 0.168166 0.364049
-0.016321 0.167519 0.362649
-0.015269 0.166880 0.361264
-0.014252 0.166556 0.360563
-0.013218 0.165982 0.359321
-0.012206 0.165601 0.358496
-0.011202 0.165282 0.357806
-0.010202 0.164963 0.357115
-0.009194 0.164432 0.355965
-0.008203 0.164118 0.355286
-0.007215 0.163783 0.354562
-0.006232 0.163470 0.353882
-0.005253 0.163174 0.353242
-0.004282 0.163040 0.352953
-0.003308 0.162718 0.352256
-0.002341 0.162527 0.351841
-0.001374 0.162226 0.351190
-0.000412 0.162066 0.350845
0.000549 0.161891 0.350466
0.001506 0.161603 0.349842
0.002461 0.161391 0.349383
0.003412 0.161082 0.348715
0.004363 0.160929 0.348383
0.005307 0.160620 0.347713
0.006259 0.160601 0.347672
0.007197 0.160289 0.346997
0.008137 0.160073 0.346528
0.009079 0.159946 0.346255
0.010008 0.159630 0.345571
0.010953 0.159610 0.345527
0.011878 0.159315 0.344889
0.012819 0.159270 0.344792
0.013738 0.158974 0.344150
0.014679 0.158958 0.344115
0.015617 0.158910 0.344012
0.016558 0.158892 0.343972
0.017498 0.158872 0.343930
0.018405 0.158572 0.343279
0.019343 0.158550 0.343233
0.020315 0.158802 0.343779
0.021255 0.158785 0.343740
0.022193 0.158760 0.343687
0.023131 0.158736 0.343635
0.024073 0.158738 0.343640
0.025054 0.158991 0.344187
0.025997 0.158989 0.344183
0.026935 0.158963 0.344127
0.027880 0.158977 0.344156
0.028860 0.159182 0.344601
0.029799 0.159156 0.344544
0.030753 0.159209 0.344659
0.031748 0.159462 0.345207
0.032736 0.159670 0.345656
0.033699 0.159744 0.345818
0.034684 0.159917 0.346192
0.035691 0.160182 0.346764
0.036657 0.160253 0.346920
0.037673 0.160533 0.347525
0.038738 0.161001 0.348539
0.039719 0.161108 0.348771
0.040741 0.161369 0.349335
0.041773 0.161662 0.349970
0.042848 0.162101 0.350920
0.043922 0.162518 0.351823
0.044966 0.162808 0.352450
0.046096 0.163390 0.353709
0.047236 0.163985 0.354997
0.048294 0.164274 0.355625
0.049443 0.164859 0.356890
0.050614 0.165489 0.358253
0.051873 0.166381 0.360186
0.053051 0.166984 0.361490
0.054343 0.167916 0.363507
0.055726 0.169089 0.366047
0.057343 0.170921 0.370013
0.059600 0.174561 0.377893
0.062464 0.179827 0.389292
0.064403 0.182297 0.394641
0.066206 0.184305 0.398988
0.067726 0.185476 0.401522
0.069341 0.186865 0.404529
0.070952 0.188198 0.407414
0.072492 0.189304 0.409808
0.074268 0.190984 0.413446
0.075988 0.192471 0.416666
0.077846 0.194261 0.420541
0.079447 0.195364 0.422929
0.080749 0.195713 0.423682
0.082053 0.196055 0.424423
0.083345 0.196360 0.425084
0.084776 0.196979 0.426423
0.086073 0.197273 0.427061
0.087413 0.197658 0.427893
0.088848 0.198245 0.429164
0.090029 0.198256 0.429188
0.091343 0.198557 0.429841
0.092605 0.198738 0.430233
0.093904 0.198993 0.430784
0.094991 0.198798 0.430363
0.095994 0.198435 0.429577
0.097108 0.198307 0.429298
0.098062 0.197858 0.428328
0.099164 0.197717 0.428021
0.100286 0.197616 0.427803
0.101405 0.197512 0.427579
0.102417 0.197207 0.426918
0.103637 0.197303 0.427126
0.104751 0.197196 0.426894
0.105861 0.197086 0.426655
0.106972 0.196979 0.426424
0.108078 0.196867 0.426181
0.109186 0.196758 0.425946
0.110503 0.197027 0.426529
0.111609 0.196917 0.426289
0.112713 0.196805 0.426047
0.113813 0.196688 0.425795
0.114927 0.196600 0.425603
0.116233 0.196837 0.426118
0.117332 0.196722 0.425867
0.118604 0.196896 0.426245
0.119755 0.196869 0.426186
0.120844 0.196742 0.425911
0.122175 0.197007 0.426484
0.123287 0.196916 0.426288
0.124600 0.197147 0.426787
0.125937 0.197409 0.427356
0.127043 0.197309 0.427138
0.128361 0.197536 0.427630
0.129685 0.197769 0.428133
0.131034 0.198036 0.428712
0.132387 0.198302 0.429289
0.133737 0.198560 0.429847
-0.137490 0.203851 0.438601
-0.136368 0.203971 0.438859
-0.134984 0.203696 0.438267
-0.133601 0.203419 0.437671
-0.132270 0.203216 0.437234
-0.130898 0.202946 0.436653
-0.129763 0.203042 0.436859
-0.128645 0.203166 0.437127
-0.127299 0.202929 0.436617
-0.126162 0.203024 0.436821
-0.124991 0.203066 0.436911
-0.123696 0.202905 0.436564
-0.122566 0.203015 0.436801
-0.121430 0.203116 0.437019
-0.120087 0.202870 0.436489
-0.118955 0.202978 0.436722
-0.117812 0.203071 0.436921
-0.116476 0.202828 0.436399
-0.115344 0.202941 0.436641
-0.114213 0.203057 0.436891
-0.113078 0.203167 0.437129
-0.111923 0.203244 0.437293
-0.110589 0.202994 0.436757
-0.109452 0.203104 0.436993
-0.108414 0.203404 0.437637
-0.107373 0.203703 0.438282
-0.106126 0.203614 0.438090
-0.105322 0.204382 0.439742
-0.095706 0.187871 0.404218
-0.090707 0.180143 0.387591
-0.089345 0.179539 0.386290
-0.088040 0.179036 0.385210
-0.086805 0.178666 0.384414
-0.085625 0.178403 0.383846
-0.084615 0.178490 0.384033
-0.083588 0.178544 0.384150
-0.082575 0.178629 0.384333
-0.081570 0.178735 0.384561
-0.080555 0.178820 0.384745
-0.079538 0.178903 0.384923
-0.078642 0.179264 0.385698
-0.077637 0.179383 0.385955
-0.076624 0.179486 0.386178
-0.075600 0.179567 0.386352
-0.074572 0.179642 0.386513
-0.073677 0.180041 0.387370
-0.072657 0.180143 0.387591
-0.071628 0.180226 0.387769
-0.070717 0.180613 0.388602
-0.069690 0.180711 0.388812
-0.068653 0.180783 0.388967
-0.067733 0.181174 0.389810
-0.066702 0.181274 0.390024
-0.065658 0.181340 0.390166
-0.064728 0.181730 0.391006
-0.063690 0.181827 0.391213
-0.062641 0.181890 0.391350
-0.061618 0.182037 0.391665
-0.060656 0.182371 0.392385
-0.059602 0.182434 0.392520
-0.058653 0.182829 0.393370
-0.057708 0.183248 0.394271
-0.056651 0.183325 0.394437
-0.055697 0.183740 0.395331
-0.054670 0.183931 0.395740
-0.053663 0.184193 0.396305
-0.052640 0.184414 0.396780
-0.051627 0.184678 0.397349
-0.050697 0.185256 0.398592
-0.049721 0.185692 0.399529
-0.048737 0.186113 0.400435
-0.047748 0.186534 0.401341
-0.046845 0.187320 0.403033
-0.045877 0.187875 0.404227
-0.044925 0.188531 0.405638
-0.043919 0.188984 0.406613
-0.043003 0.189857 0.408491
-0.042035 0.190538 0.409957
-0.041025 0.191068 0.411097
-0.040038 0.191735 0.412531
-0.038941 0.191898 0.412882
-0.037892 0.192312 0.413773
-0.036837 0.192726 0.414663
-0.035766 0.193072 0.415408
-0.034646 0.193175 0.415629
-0.033579 0.193586 0.416515
-0.032443 0.193620 0.416587
-0.031307 0.193652 0.416656
-0.030171 0.193683 0.416722
-0.029090 0.194090 0.417598
-0.028004 0.194490 0.418458
-0.026862 0.194526 0.418537
-0.025587 0.193549 0.416434
-0.022022 0.174361 0.375149
-0.020788 0.172645 0.371459
-0.019585 0.171026 0.367975
-0.018470 0.170038 0.365849
-0.017367 0.169058 0.363740
-0.016312 0.168453 0.362439
-0.015283 0.168064 0.361602
-0.014245 0.167497 0.360381
-0.013227 0.167118 0.359567
-0.012222 0.166847 0.358983
-0.011213 0.166455 0.358140
-0.010212 0.166133 0.357448
-0.009203 0.165597 0.356293
-0.008211 0.165281 0.355613
-0.007223 0.164964 0.354933
-0.006239 0.164648 0.354251
-0.005258 0.164330 0.353568
-0.004281 0.164024 0.352909
-0.003312 0.163872 0.352582
-0.002343 0.163681 0.352171
-0.001376 0.163389 0.351543
-0.000413 0.163361 0.351484
0.000549 0.163054 0.350822
0.001507 0.162733 0.350131
0.002462 0.162426 0.349471
0.003419 0.162395 0.349404
0.004367 0.162082 0.348732
0.005312 0.161759 0.348036
0.006265 0.161741 0.347998
0.007204 0.161426 0.347320
0.008144 0.161207 0.346848
0.009088 0.161090 0.346596
0.010023 0.160857 0.346096
0.010964 0.160750 0.345865
0.011910 0.160730 0.345822
0.012831 0.160407 0.345127
0.013775 0.160386 0.345082
0.014697 0.160126 0.344522
0.015632 0.160039 0.344335
0.016573 0.160020 0.344295
0.017514 0.160001 0.344253
0.018455 0.159980 0.344209
0.019395 0.159959 0.344163
0.020335 0.159936 0.344113
0.021275 0.159913 0.344064
0.022218 0.159914 0.344067
0.023156 0.159889 0.344012
0.024098 0.159882 0.343998
0.025078 0.160121 0.344512
0.026021 0.160119 0.344507
0.026966 0.160128 0.344526
0.027948 0.160345 0.344994
0.028892 0.160340 0.344984
0.029885 0.160595 0.345531
0.030826 0.160567 0.345471
0.031770 0.160553 0.345441
0.032769 0.160812 0.345998
0.033773 0.161082 0.346580
0.034736 0.161142 0.346709
0.035727 0.161330 0.347112
0.036741 0.161606 0.347708
0.037755 0.161872 0.348279
0.038775 0.162146 0.348870
0.039757 0.162252 0.349097
0.040783 0.162532 0.349699
0.041856 0.162979 0.350662
0.042929 0.163408 0.351585
0.043968 0.163688 0.352186
0.045093 0.164273 0.353445
0.046140 0.164552 0.354046
0.047281 0.165152 0.355336
0.048431 0.165754 0.356633
0.049587 0.166357 0.357929
0.050751 0.166961 0.359229
0.051990 0.167782 0.360996
0.053206 0.168502 0.362543
0.054577 0.169675 0.365069
0.056070 0.171182 0.368310
0.057737 0.173154 0.372554
0.060136 0.177218 0.381296
0.062697 0.181610 0.390746
0.064558 0.183860 0.395588
0.066291 0.185678 0.399500
0.067894 0.187080 0.402517
0.069516 0.188489 0.405547
0.071159 0.189910 0.408604
0.072811 0.191308 0.411613
0.074632 0.193101 0.415472
0.076359 0.194604 0.418704
0.077951 0.195720 0.421106
0.079382 0.196406 0.422581
0.080523 0.196367 0.422497
0.081947 0.197007 0.423875
0.083234 0.197306 0.424518
0.084526 0.197606 0.425163
0.085819 0.197901 0.425799
0.087129 0.198228 0.426502
0.088453 0.198579 0.427258
0.089732 0.198818 0.427771
0.091038 0.199113 0.428406
0.092336 0.199380 0.428980
0.093645 0.199666 0.429596
0.094960 0.199957 0.430221
0.096092 0.199859 0.430012
0.097220 0.199757 0.429791
0.098343 0.199646 0.429553
0.099456 0.199519 0.429280
0.100581 0.199418 0.429062
0.101630 0.199170 0.428528
0.102639 0.198851 0.427843
0.103740 0.198714 0.427548
0.104872 0.198639 0.427387
0.106076 0.198703 0.427524
0.107287 0.198776 0.427681
0.108397 0.198663 0.427438
0.109508 0.198554 0.427203
0.110613 0.198438 0.426953
0.111731 0.198346 0.426756
0.112844 0.198247 0.426542
0.114149 0.198484 0.427053
0.115252 0.198370 0.426807
0.116363 0.198270 0.426592
0.117679 0.198519 0.427127
0.118779 0.198401 0.426874
0.119895 0.198313 0.426684
0.121202 0.198540 0.427173
0.122314 0.198445 0.426969
0.123633 0.198685 0.427486
0.124970 0.198949 0.428053
0.126277 0.199161 0.428509
0.127417 0.199109 0.428397
0.128742 0.199343 0.428900
0.130070 0.199578 0.429405
0.131424 0.199847 0.429986
0.132780 0.200117 0.430565
0.134133 0.200375 0.431121
-0.137097 0.204514 0.437350
-0.135966 0.204614 0.437564
-0.134608 0.204372 0.437046
-0.133216 0.204075 0.436410
-0.132088 0.204178 0.436632
-0.130713 0.203900 0.436036
-0.129372 0.203669 0.435544
-0.128258 0.203794 0.435810
-0.127105 0.203860 0.435951
-0.125781 0.203651 0.435504
-0.124438 0.203405 0.434979
-0.123319 0.203525 0.435236
-0.122181 0.203616 0.435430
-0.121063 0.203742 0.435699
-0.119871 0.203744 0.435703
-0.118593 0.203600 0.435395
-0.117456 0.203696 0.435600
-0.116331 0.203816 0.435858
-0.114993 0.203560 0.435309
-0.113865 0.203676 0.435557
-0.112733 0.203787 0.435795
