ply
format ascii 1.0
comment generated by convert_depth_to_ply.py
element vertex 1595
property float x
property float y
property float z
end_header
21.188110 -9.394131 114.105255
21.365921 -9.391398 114.072060
21.574870 -9.402282 114.204254
21.771743 -9.407763 114.270828
22.017095 -9.433924 114.588600
22.248247 -9.453617 114.827789
22.426658 -9.450758 114.793068
22.604743 -9.447810 114.757263
22.782836 -9.444913 114.722076
22.960372 -9.441834 114.684677
23.138126 -9.438893 114.648956
23.288606 -9.424961 114.479729
23.310169 -9.359486 113.684433
23.324441 -9.292128 112.866272
23.318396 -9.217781 111.963226
23.140767 -9.077271 110.256531
22.947135 -8.932675 108.500198
22.797498 -8.807263 106.976898
22.695781 -8.702110 105.699654
22.632591 -8.613186 104.619545
22.615396 -8.542953 103.766464
22.627716 -8.484818 103.060341
22.645918 -8.429722 102.391113
22.728941 -8.399377 102.022537
22.775180 -8.355973 101.495331
22.895015 -8.339998 101.301285
23.014306 -8.324052 101.107597
23.117748 -8.302638 100.847496
23.270897 -8.299251 100.806351
23.423210 -8.295614 100.762184
23.706029 -8.337930 101.276169
-14.357181 -4.490503 55.684593
-14.272423 -4.492092 55.704304
-14.155340 -4.483464 55.597301
-14.048468 -4.477980 55.529297
-13.964524 -4.479780 55.551628
-13.877970 -4.480762 55.563797
-13.742220 -4.465769 55.377876
-13.657948 -4.467418 55.398323
-13.573625 -4.469072 55.418835
-13.460996 -4.461366 55.323280
-13.300313 -4.437525 55.027637
-13.195259 -4.432048 54.959724
-13.111319 -4.433637 54.979427
-13.023706 -4.433997 54.983894
-12.916830 -4.427759 54.906536
-12.754853 -4.402416 54.592274
-12.620044 -4.386164 54.390736
-12.489318 -4.371113 54.204090
-12.355655 -4.354814 54.001980
-12.226625 -4.339929 53.817394
-12.122180 -4.333620 53.739159
-12.011694 -4.325044 53.632820
-11.890333 -4.312401 53.476032
-11.788974 -4.306879 53.407562
-11.698236 -4.305186 53.386562
-11.562138 -4.286649 53.156704
-11.463199 -4.281716 53.095528
-11.336707 -4.266339 52.904846
-11.210856 -4.250972 52.714291
-11.101866 -4.241813 52.600708
-10.975349 -4.225764 52.401695
-10.867833 -4.216839 52.291016
-10.760629 -4.207896 52.180122
-10.648171 -4.196741 52.041798
-10.541383 -4.187662 51.929211
-10.423818 -4.174122 51.761303
-10.324899 -4.167890 51.684021
-10.228578 -4.162613 51.618591
-10.136786 -4.159109 51.575130
-10.056716 -4.160395 51.591087
-9.976460 -4.161626 51.606346
-9.913683 -4.170230 51.713039
-9.842726 -4.175510 51.778511
-9.761108 -4.176319 51.788544
-9.670644 -4.173324 51.751408
-9.558839 -4.160987 51.598423
-9.444483 -4.147314 51.428867
-9.339190 -4.137413 51.306091
-9.244611 -4.132124 51.240505
-9.157815 -4.130250 51.217266
-9.073986 -4.129692 51.210346
-9.004241 -4.135592 51.283516
-8.942835 -4.145468 51.405979
-8.902340 -4.165312 51.652058
-8.898281 -4.202741 52.116192
-8.861331 -4.225200 52.394699
-8.786432 -4.229823 52.452026
-8.692118 -4.225098 52.393436
-8.607361 -4.224972 52.391872
-8.519669 -4.223389 52.372238
-8.421480 -4.216518 52.287033
-8.329540 -4.212668 52.239296
-8.245420 -4.212735 52.240128
-8.172517 -4.218594 52.312778
-8.090084 -4.219604 52.325306
-7.971952 -4.201820 52.104771
-7.890140 -4.203003 52.119450
-7.830227 -4.216004 52.280666
-2.415025 -1.314469 16.300100
-1.631141 -0.897581 11.130475
-1.600587 -0.890569 11.043519
-1.584536 -0.891559 11.055799
-1.567050 -0.891755 11.058233
-1.549682 -0.892024 11.061566
-1.532069 -0.892156 11.063204
-1.511622 -0.890621 11.044172
-1.494096 -0.890792 11.046289
-1.476559 -0.890960 11.048375
-1.456221 -0.889422 11.029294
-1.435939 -0.887880 11.010173
-1.418466 -0.888057 11.012379
-1.399750 -0.887452 11.004868
-1.380791 -0.886674 10.995229
-1.360670 -0.885121 10.975968
-1.343224 -0.885290 10.978061
-1.324531 -0.884630 10.969880
-1.305759 -0.883899 10.960816
-1.288180 -0.883967 10.961653
-1.268396 -0.882502 10.943488
-1.250563 -0.882373 10.941892
-1.231134 -0.881098 10.926076
-1.213534 -0.881113 10.926264
-1.193976 -0.879687 10.908583
-1.176581 -0.879835 10.910419
-1.157933 -0.879037 10.900516
-1.139317 -0.878239 10.890621
-1.119968 -0.876841 10.873295
-1.102369 -0.876792 10.872677
-1.083124 -0.875410 10.855537
-1.063706 -0.873840 10.836081
-1.046387 -0.873972 10.837715
-1.027055 -0.872398 10.818192
-1.009758 -0.872528 10.819811
-0.991251 -0.871599 10.808279
-0.973238 -0.871078 10.801827
-0.955248 -0.870560 10.795398
-0.936826 -0.869621 10.783761
-0.918390 -0.868634 10.771514
-0.900521 -0.868156 10.765584
-0.882968 -0.867968 10.763261
-0.864328 -0.866684 10.747336
-0.847103 -0.866795 10.748710
-0.829868 -0.866899 10.750007
-0.812312 -0.866666 10.747116
-0.793830 -0.865414 10.731586
-0.776612 -0.865513 10.732821
-0.758617 -0.864733 10.723146
-0.740707 -0.864015 10.714241
-0.722470 -0.862872 10.700061
-0.704919 -0.862512 10.695605
-0.686972 -0.861637 10.684753
-0.669247 -0.861003 10.676889
-0.650818 -0.859406 10.657091
-0.633689 -0.859487 10.658089
-0.615354 -0.857889 10.638271
-0.597330 -0.856647 10.622867
-0.580007 -0.856365 10.619370
-0.561829 -0.854765 10.599539
-0.544479 -0.854367 10.594594
-0.526693 -0.853234 10.580547
-0.509668 -0.853299 10.581353
-0.492353 -0.852867 10.575998
-0.474677 -0.851756 10.562223
-0.457673 -0.851814 10.562944
-0.439807 -0.850208 10.543029
-0.422830 -0.850262 10.543694
-0.405849 -0.850313 10.544331
-0.388107 -0.848703 10.524364
-0.371154 -0.848749 10.524937
-0.354198 -0.848794 10.525493
-0.336691 -0.847456 10.508904
-0.319653 -0.847220 10.505979
-0.302723 -0.847258 10.506450
-0.285303 -0.845851 10.489000
-0.268330 -0.845674 10.486802
-0.250936 -0.844055 10.466727
-0.234063 -0.844084 10.467084
-0.216765 -0.842464 10.446991
-0.199922 -0.842488 10.447295
-0.182720 -0.840866 10.427185
-0.165907 -0.840886 10.427433
-0.149093 -0.840904 10.427653
-0.132278 -0.840920 10.427846
-0.115461 -0.840933 10.428013
-0.098563 -0.840248 10.419512
-0.081667 -0.839312 10.407915
-0.064882 -0.839319 10.407998
-0.048096 -0.839324 10.408056
-0.031282 -0.838581 10.398841
-0.014496 -0.837689 10.387777
0.002258 -0.837622 10.386954
0.018974 -0.836048 10.367432
0.035694 -0.836041 10.367353
0.052364 -0.835228 10.357265
0.068999 -0.834391 10.346885
0.085685 -0.834378 10.346725
0.102370 -0.834363 10.346538
0.119054 -0.834345 10.346322
0.135738 -0.834326 10.346081
0.152394 -0.834161 10.344032
0.168964 -0.833605 10.337137
0.185630 -0.833579 10.336814
0.202458 -0.834226 10.344845
0.219134 -0.834196 10.344467
0.236270 -0.835794 10.364285
0.253469 -0.837393 10.384116
0.270894 -0.839492 10.410139
0.288803 -0.842759 10.450659
0.306248 -0.844387 10.470840
0.324392 -0.847669 10.511541
0.342671 -0.850962 10.552376
0.360978 -0.854009 10.590166
0.379164 -0.856510 10.621174
0.397550 -0.859224 10.654834
0.416203 -0.862267 10.692568
0.434421 -0.864203 10.716568
0.453452 -0.867547 10.758033
0.472623 -0.870901 10.799623
0.492193 -0.874726 10.847067
0.511860 -0.878454 10.893296
0.531796 -0.882383 10.942018
0.551791 -0.886153 10.988768
0.572283 -0.890462 11.042191
0.593537 -0.895661 11.106661
0.615341 -0.901361 11.177354
0.636728 -0.906143 11.236648
0.658996 -0.911879 11.307779
0.681171 -0.917181 11.373527
0.703577 -0.922508 11.439590
0.726222 -0.927868 11.506052
0.749863 -0.934203 11.584606
0.772453 -0.938950 11.643478
0.795814 -0.944389 11.710914
0.819414 -0.949852 11.778658
0.843262 -0.955348 11.846814
0.867352 -0.960869 11.915280
0.891695 -0.966424 11.984166
0.916069 -0.971777 12.050545
0.941906 -0.978427 12.133005
0.967039 -0.984091 12.203240
0.993028 -0.990381 12.281240
1.018981 -0.996390 12.355762
1.044637 -1.001884 12.423893
1.069189 -1.006133 12.476583
1.096586 -1.012852 12.559901
1.122244 -1.017752 12.620653
1.149176 -1.023610 12.693297
1.176218 -1.029360 12.764603
1.203700 -1.035291 12.838146
1.231451 -1.041248 12.912017
1.260873 -1.048396 13.000664
1.287795 -1.053267 13.061058
1.317844 -1.060496 13.150707
1.346882 -1.066697 13.227599
1.378561 -1.074762 13.327615
1.410871 -1.083065 13.430572
1.445169 -1.092619 13.549045
1.476777 -1.099885 13.639149
1.510290 -1.108336 13.743950
1.542511 -1.115608 13.834126
1.575579 -1.123276 13.929214
1.605335 -1.128401 13.992770
1.634080 -1.132683 14.045870
1.664835 -1.138223 14.114558
1.698751 -1.145744 14.207832
1.740816 -1.158489 14.365870
1.788790 -1.174779 14.567873
1.824671 -1.182808 14.667438
1.860461 -1.190573 14.763732
1.895012 -1.197359 14.847884
1.929918 -1.204198 14.932683
1.964806 -1.210856 15.015251
1.995789 -1.214975 15.066331
2.024319 -1.217520 15.097884
2.059722 -1.224089 15.179343
2.104329 -1.235909 15.325922
2.145835 -1.245655 15.446775
2.179806 -1.250853 15.511229
2.216331 -1.257382 15.592193
2.254167 -1.264500 15.680460
2.288416 -1.269470 15.742096
2.318618 -1.272111 15.774842
2.356085 -1.278637 15.855771
2.397203 -1.286983 15.959264
2.451327 -1.302060 16.146229
14.689584 -7.720583 95.739281
17.274824 -8.984895 111.417412
17.257602 -8.883530 110.160439
17.476844 -8.904714 110.423126
17.762815 -8.959126 111.097862
17.937310 -8.956787 111.068863
18.199971 -8.998084 111.580971
18.429593 -9.022398 111.882469
18.660912 -9.047063 112.188332
18.911027 -9.080279 112.600227
19.104259 -9.085811 112.668823
19.280810 -9.083379 112.638672
19.479201 -9.091186 112.735481
19.694391 -9.106617 112.926826
19.932475 -9.132253 113.244736
20.141916 -9.144420 113.395615
20.319123 -9.141866 113.363937
20.496182 -9.139291 113.332008
20.720230 -9.157530 113.558174
20.916942 -9.163472 113.631866
21.156616 -9.187970 113.935646
21.355292 -9.194394 114.015312
21.546239 -9.197409 114.052696
21.723766 -9.194693 114.019020
21.900813 -9.191821 113.983406
22.128560 -9.210099 114.210060
22.393312 -9.243349 114.622383
22.571133 -9.240466 114.586632
22.748957 -9.237632 114.551483
22.926231 -9.234621 114.514145
23.027956 -9.201471 114.103065
23.150976 -9.177288 113.803185
23.206994 -9.127133 113.181244
23.277369 -9.083365 112.638489
23.155917 -8.965998 111.183083
23.016259 -8.843440 109.663300
22.781646 -8.686545 107.717720
22.622099 -8.560431 106.153839
22.481859 -8.443463 104.703369
22.457455 -8.371418 103.809975
22.435243 -8.301251 102.939865
22.421927 -8.235382 102.123055
22.472477 -8.193759 101.606918
22.506450 -8.146740 101.023849
22.605446 -8.123763 100.738930
22.721405 -8.107167 100.533127
22.838137 -8.091080 100.333641
22.989615 -8.087443 100.288536
23.142621 -8.084390 100.250679
23.296055 -8.081528 100.215187
23.524938 -8.104699 100.502518
-14.358958 -4.397113 55.691486
-14.273800 -4.398549 55.709679
-14.134807 -4.383309 55.516655
-14.050207 -4.384850 55.536171
-13.966257 -4.386615 55.558521
-13.881866 -4.388263 55.579395
-13.772174 -4.381882 55.498585
-13.659646 -4.374510 55.405212
-13.567170 -4.373505 55.392479
-13.380471 -4.341911 54.992332
-13.195499 -4.310460 54.593990
-13.093536 -4.305884 54.536037
-13.010244 -4.307428 54.555592
-12.923195 -4.307741 54.559551
-12.788064 -4.291921 54.359180
-12.681772 -4.285628 54.279480
-12.567461 -4.276519 54.164108
-12.418285 -4.255335 53.895805
-12.281502 -4.238129 53.677887
-12.152494 -4.223381 53.491096
-12.043049 -4.215270 53.388359
-11.916512 -4.201016 53.207829
-11.805669 -4.192128 53.095261
-11.700956 -4.185303 53.008816
-11.596528 -4.178480 52.922401
-11.486151 -4.169397 52.807354
-11.374843 -4.159837 52.686279
-11.252671 -4.146130 52.512676
-11.138333 -4.135125 52.373283
-11.027491 -4.125258 52.248318
-10.923205 -4.117711 52.152733
-10.805028 -4.104770 51.988827
-10.703856 -4.098137 51.904819
-10.597454 -4.089381 51.793922
-10.490946 -4.080445 51.680744
-10.380357 -4.069766 51.545490
-10.281046 -4.063372 51.464504
-10.189733 -4.060060 51.422562
-10.098548 -4.056746 51.380581
-10.010412 -4.054612 51.353550
-9.926598 -4.054207 51.348423
-9.857922 -4.060030 51.422173
-9.784395 -4.063937 51.471657
-9.693481 -4.060627 51.429741
-9.577263 -4.046569 51.251690
-9.458449 -4.031160 51.056522
-9.356183 -4.022594 50.948036
-9.267141 -4.019613 50.910278
-9.173373 -4.014511 50.845654
-9.093940 -4.015646 50.860027
-9.014369 -4.016740 50.873890
-8.934856 -4.017881 50.888336
-8.866982 -4.024325 50.969955
-8.816607 -4.038906 51.154633
-8.795131 -4.067126 51.512054
-8.770978 -4.094635 51.860466
-8.704249 -4.102606 51.961422
-8.622655 -4.103658 51.974739
-8.528348 -4.098620 51.910934
-8.426337 -4.089743 51.798504
-8.344997 -4.090822 51.812168
-8.257958 -4.089100 51.790367
-8.175068 -4.089419 51.794403
-8.100269 -4.093834 51.850319
-8.018564 -4.094814 51.862732
-7.909556 -4.081725 51.696949
-7.778659 -4.056941 51.383049
-7.713779 -4.066425 51.503166
-2.255911 -1.202180 15.226171
-1.628461 -0.877361 11.112188
-1.602473 -0.872967 11.056533
-1.584741 -0.873022 11.057227
-1.567253 -0.873214 11.059662
-1.549754 -0.873405 11.062078
-1.532267 -0.873607 11.064635
-1.511789 -0.872087 11.045395
-1.494289 -0.872271 11.047718
-1.473897 -0.870750 11.028456
-1.456345 -0.870890 11.030230
-1.436125 -0.869419 11.011600
-1.418592 -0.869558 11.013356
-1.398432 -0.868069 10.994503
-1.380768 -0.868112 10.995042
-1.360847 -0.866718 10.977394
-1.343133 -0.866712 10.977316
-1.323363 -0.865361 10.960206
-1.305790 -0.865430 10.961073
-1.285980 -0.863998 10.942934
-1.268561 -0.864154 10.944912
-1.248692 -0.862623 10.925517
-1.231110 -0.862649 10.925858
-1.211513 -0.861245 10.908068
-1.194132 -0.861398 10.910003
-1.176519 -0.861385 10.909843
-1.157068 -0.860005 10.892371
-1.139147 -0.859739 10.888994
-1.120114 -0.858611 10.874713
-1.101500 -0.857774 10.864106
-1.083008 -0.857006 10.854376
-1.063845 -0.855673 10.837495
-1.045890 -0.855283 10.832564
-1.027189 -0.854260 10.819607
-1.009890 -0.854388 10.821226
-0.990644 -0.852843 10.801661
-0.973365 -0.852968 10.803239
-0.954874 -0.852016 10.791177
-0.936948 -0.851542 10.785172
-0.917882 -0.849993 10.765563
-0.900639 -0.850106 10.766992
-0.882230 -0.849101 10.754265
-0.864442 -0.848665 10.748744
-0.846893 -0.848452 10.746039
-0.828851 -0.847725 10.736827
-0.811149 -0.847322 10.731728
-0.793934 -0.847422 10.732993
-0.776714 -0.847519 10.734229
-0.758005 -0.845961 10.714490
-0.740475 -0.845676 10.710878
-0.722190 -0.844494 10.695909
-0.705012 -0.844581 10.697009
-0.686487 -0.843018 10.677219
-0.668571 -0.842141 10.666104
-0.650903 -0.841540 10.658491
-0.633017 -0.840615 10.646779
-0.615435 -0.840053 10.639669
-0.597161 -0.838489 10.619857
-0.580083 -0.838561 10.620767
-0.561902 -0.836995 10.600933
-0.544130 -0.835958 10.587801
-0.526763 -0.835495 10.581938
-0.509735 -0.835559 10.582745
-0.491742 -0.833990 10.562872
-0.474739 -0.834048 10.563613
-0.457071 -0.832898 10.549043
-0.439865 -0.832533 10.544415
-0.422885 -0.832585 10.545082
-0.405284 -0.831367 10.529645
-0.388158 -0.831059 10.525749
-0.371203 -0.831104 10.526323
-0.354002 -0.830579 10.519665
-0.336625 -0.829568 10.506864
-0.319695 -0.829607 10.507362
-0.302762 -0.829644 10.507833
-0.285310 -0.828178 10.489263
-0.267902 -0.826662 10.470060
-0.250969 -0.826508 10.468106
-0.233660 -0.825004 10.449066
-0.216794 -0.824949 10.448368
-0.199582 -0.823464 10.429550
-0.182744 -0.823385 10.428559
-0.165929 -0.823405 10.428807
-0.149113 -0.823422 10.429029
-0.132295 -0.823438 10.429221
-0.115380 -0.822760 10.420637
-0.098465 -0.821855 10.409176
-0.081678 -0.821864 10.409286
-0.064890 -0.821870 10.409370
-0.048059 -0.821137 10.400085
-0.031253 -0.820273 10.389144
-0.014497 -0.820217 10.388437
0.002254 -0.818671 10.368852
0.018976 -0.818667 10.368799
0.035664 -0.817866 10.358659
0.052319 -0.817055 10.348381
0.069008 -0.817044 10.348248
0.085696 -0.817032 10.348088
0.102298 -0.816334 10.339256
0.118838 -0.815406 10.327495
0.135491 -0.815387 10.327254
0.152143 -0.815366 10.326986
0.168793 -0.815342 10.326690
0.185442 -0.815317 10.326366
0.202090 -0.815289 10.326019
0.219163 -0.816853 10.345829
0.235968 -0.817265 10.351042
0.253503 -0.819984 10.385484
0.270930 -0.822039 10.411510
0.288278 -0.823629 10.431641
0.306289 -0.826832 10.472219
0.324341 -0.829808 10.509909
0.342293 -0.832243 10.540749
0.360429 -0.834873 10.574059
0.378947 -0.838112 10.615079
0.397602 -0.841362 10.656237
0.415583 -0.842973 10.676643
0.434478 -0.846236 10.717978
0.453512 -0.849510 10.759447
0.472685 -0.852795 10.801044
0.491998 -0.856089 10.842772
0.511453 -0.859395 10.884634
0.531338 -0.863181 10.932591
0.551633 -0.867368 10.985626
0.572112 -0.871575 11.038899
0.593353 -0.876654 11.103229
0.614821 -0.881760 11.167906
0.636517 -0.886894 11.232929
0.658756 -0.892479 11.303658
0.680932 -0.897681 11.369550
0.703342 -0.902909 11.435761
0.725989 -0.908168 11.502373
0.749193 -0.913843 11.574248
0.772316 -0.919146 11.641418
0.795918 -0.924755 11.712451
0.818973 -0.929482 11.772326
0.842830 -0.934884 11.840746
0.866930 -0.940311 11.909482
0.890765 -0.945221 11.971665
0.915885 -0.951258 12.048128
0.941033 -0.957072 12.121765
0.966140 -0.962609 12.191887
0.992536 -0.969184 12.275162
1.017321 -0.973959 12.335645
1.043193 -0.979571 12.406724
1.069140 -0.985041 12.476005
1.095725 -0.990887 12.550048
1.121984 -0.996230 12.617723
1.148144 -1.001298 12.681901
1.176157 -1.007775 12.763941
1.201651 -1.011908 12.816293
1.230532 -1.018706 12.902385
1.258548 -1.024573 12.976698
1.287805 -1.031242 13.061156
1.315413 -1.036397 13.126454
1.345305 -1.043160 13.212111
1.373514 -1.048427 13.278820
1.404035 -1.055271 13.365497
1.435354 -1.062497 13.457025
1.469848 -1.071825 13.575159
1.503304 -1.080132 13.680375
1.537126 -1.088458 13.785830
1.569618 -1.095618 13.876514
1.601103 -1.101884 13.955881
1.632860 -1.108161 14.035382
1.663243 -1.113347 14.101060
1.695775 -1.119812 14.182940
1.735660 -1.130895 14.323319
1.785659 -1.148191 14.542377
1.822880 -1.156929 14.653041
1.857066 -1.163541 14.736794
1.891756 -1.170298 14.822369
1.928472 -1.178124 14.921496
1.961564 -1.183570 14.990473
1.992802 -1.187779 15.043779
2.022482 -1.190970 15.084189
2.057313 -1.197081 15.161588
2.100452 -1.207826 15.297687
2.142450 -1.217674 15.422407
2.180087 -1.224845 15.513230
2.217072 -1.231491 15.597409
2.255597 -1.238834 15.690412
2.292680 -1.245231 15.771430
2.324841 -1.248843 15.817180
2.365081 -1.256670 15.916311
2.406350 -1.264869 16.020161
2.408506 -1.252554 15.864181
9.916894 -5.103112 64.633301
17.233394 -8.775847 111.150200
17.289144 -8.713597 110.361778
17.523118 -8.741525 110.715492
17.765094 -8.772841 111.112122
17.939612 -8.770551 111.083122
18.143555 -8.782550 111.235092
18.414363 -8.826364 111.790016
18.607368 -8.832396 111.866425
18.824891 -8.849840 112.087357
19.074815 -8.882039 112.495171
19.283277 -8.894507 112.653084
19.459709 -8.892106 112.622673
19.635796 -8.889593 112.590843
19.834987 -8.897490 112.690865
20.089875 -8.930001 113.102631
20.306307 -8.944987 113.292435
20.498796 -8.949253 113.346466
20.675534 -8.946628 113.313217
20.852052 -8.943954 113.279350
21.056822 -8.953339 113.398224
21.252606 -8.958775 113.467072
21.494954 -8.983579 113.781227
21.713370 -8.998046 113.964455
21.903594 -9.000685 113.997879
22.080815 -8.997982 113.963638
22.257879 -8.995259 113.929153
22.434623 -8.992453 113.893616
22.626421 -8.995677 113.934456
22.787567 -8.986762 113.821533
22.963978 -8.983961 113.786057
23.111572 -8.970019 113.609482
23.147412 -8.913265 112.890663
23.160939 -8.848871 112.075089
23.100327 -8.757369 110.916168
22.897975 -8.613952 109.099724
22.606983 -8.439631 106.891869
22.400092 -8.299108 105.112076
22.307628 -8.202771 103.891930
22.235669 -8.115356 102.784767
22.261334 -8.064599 102.141914
22.248252 -8.000655 101.332031
22.300263 -7.960881 100.828270
22.377946 -7.930780 100.447037
22.432239 -7.892883 99.967049
22.581202 -7.888599 99.912788
22.696455 -7.872682 99.711197
22.849284 -7.869932 99.676361
23.001357 -7.866961 99.638741
23.152966 -7.863875 99.599648
23.344769 -7.874388 99.732803
-14.336064 -4.296306 55.602692
-14.195286 -4.280895 55.403244
-14.081399 -4.273450 55.306889
-14.028761 -4.284616 55.451401
-13.967943 -4.293411 55.565228
-13.879828 -4.293875 55.571236
-13.745588 -4.279983 55.391449
-13.659071 -4.280867 55.402882
-13.466311 -4.248245 54.980690
-13.254204 -4.209047 54.473389
-13.094310 -4.186017 54.175339
-12.995847 -4.182448 54.129150
-12.932151 -4.190096 54.228127
-12.849332 -4.191610 54.247715
-12.762276 -4.191752 54.249565
-12.629535 -4.176788 54.055901
-12.502385 -4.163478 53.883640
-12.387535 -4.154106 53.762348
-12.236172 -4.132272 53.479767
-12.084206 -4.109922 53.190517
-11.966637 -4.099035 53.049614
-11.854241 -4.089776 52.929783
-11.737746 -4.078958 52.789780
-11.629774 -4.070965 52.686340
-11.525813 -4.064269 52.599682
-11.415744 -4.055305 52.483662
-11.301079 -4.044561 52.344616
-11.194034 -4.036403 52.239037
-11.085391 -4.027541 52.124344
-10.972209 -4.016882 51.986393
-10.858758 -4.005959 51.845036
-10.758875 -3.999911 51.766762
-10.647259 -3.989373 51.630371
-10.545490 -3.982386 51.539955
-10.436054 -3.972371 51.410336
-10.334809 -3.965338 51.319313
-10.236405 -3.959290 51.241039
-10.141355 -3.954451 51.178421
-10.043115 -3.948279 51.098541
-9.934390 -3.937849 50.963554
-9.823182 -3.926252 50.813469
-9.707320 -3.912585 50.636585
-9.590813 -3.898423 50.453304
-9.484113 -3.888039 50.318916
-9.389376 -3.882423 50.246231
-9.299131 -3.878582 50.196526
-9.234223 -3.885335 50.283920
-9.165716 -3.890680 50.353088
-9.102651 -3.898451 50.453659
-9.035190 -3.904462 50.531456
-8.955932 -3.905438 50.544090
-8.873606 -3.905083 50.539490
-8.801022 -3.909047 50.590797
-8.741824 -3.919087 50.720734
-8.703007 -3.938540 50.972492
-8.677289 -3.964348 51.306507
-8.637149 -3.984001 51.560856
-8.561696 -3.987590 51.607296
-8.475198 -3.986054 51.587414
-8.387005 -3.983682 51.556725
-8.296862 -3.980328 51.513309
-8.206830 -3.976959 51.469715
-8.118818 -3.974510 51.438023
-8.037828 -3.975485 51.450630
-7.963602 -3.979859 51.507244
-7.849552 -3.964214 51.304764
-7.696330 -3.928241 50.839211
-7.498159 -3.868305 50.063519
-2.060278 -1.074469 13.905754
-1.627337 -0.858023 11.104518
-1.603944 -0.855100 11.066680
-1.585153 -0.854591 11.060102
-1.567450 -0.854665 11.061053
-1.549949 -0.854852 11.063471
-1.532460 -0.855049 11.066030
-1.511979 -0.853563 11.046787
-1.493195 -0.853010 11.039630
-1.474083 -0.852254 11.029846
-1.453751 -0.850765 11.010588
-1.436307 -0.850951 11.012990
-1.416061 -0.849461 10.993705
-1.398534 -0.849585 10.995305
-1.378450 -0.848138 10.976586
-1.361019 -0.848308 10.978782
-1.340947 -0.846814 10.959449
-1.323400 -0.846896 10.960512
-1.303546 -0.845484 10.942236
-1.286143 -0.845645 10.944319
-1.268553 -0.845686 10.944850
-1.248850 -0.844299 10.926902
-1.230149 -0.843560 10.917333
-1.211666 -0.842951 10.909451
-1.194283 -0.843100 10.911386
-1.176381 -0.842882 10.908562
-1.156983 -0.841570 10.891577
-1.137613 -0.840237 10.874328
-1.120257 -0.840373 10.876094
-1.100744 -0.838870 10.856642
-1.082802 -0.838536 10.852310
-1.063980 -0.837497 10.838873
-1.046023 -0.837116 10.833941
-1.027320 -0.836115 10.820983
-1.009356 -0.835691 10.815494
-0.990770 -0.834728 10.803035
-0.973489 -0.834850 10.804615
-0.954330 -0.833337 10.785025
-0.936357 -0.832822 10.778360
-0.917999 -0.831939 10.766934
-0.900754 -0.832049 10.768364
-0.881779 -0.830535 10.748762
-0.864223 -0.830324 10.746031
-0.845669 -0.829124 10.730510
-0.828463 -0.829225 10.731806
-0.811252 -0.829324 10.733096
-0.794036 -0.829422 10.734363
-0.775715 -0.828345 10.720428
-0.758102 -0.827992 10.715858
-0.739831 -0.826888 10.701565
-0.722282 -0.826557 10.697276
-0.704065 -0.825426 10.682646
-0.686575 -0.825112 10.678584
-0.668417 -0.823958 10.663651
-0.650986 -0.823665 10.659853
-0.632886 -0.822484 10.644572
-0.614764 -0.821209 10.628070
-0.597237 -0.820680 10.621216
-0.579421 -0.819708 10.608645
-0.561974 -0.819217 10.602289
-0.544048 -0.817974 10.586204
-0.526830 -0.817749 10.583292
-0.509101 -0.816690 10.569589
-0.491805 -0.816276 10.564225
-0.474502 -0.815821 10.558337
-0.456899 -0.814796 10.545073
-0.439921 -0.814850 10.545766
-0.422939 -0.814901 10.546432
-0.405163 -0.813360 10.526489
-0.388208 -0.813407 10.527099
-0.371250 -0.813452 10.527673
-0.353598 -0.811907 10.507685
-0.336669 -0.811948 10.508210
-0.319736 -0.811986 10.508709
-0.302577 -0.811422 10.501405
-0.285306 -0.810472 10.489114
-0.267936 -0.809104 10.471402
-0.251001 -0.808953 10.469448
-0.233667 -0.807402 10.449376
-0.216821 -0.807428 10.449709
-0.199584 -0.805875 10.429621
-0.182768 -0.805897 10.429897
-0.165950 -0.805916 10.430145
-0.149132 -0.805933 10.430366
-0.132312 -0.805948 10.430558
-0.115266 -0.804388 10.410374
-0.098478 -0.804399 10.410511
-0.081688 -0.804407 10.410623
-0.064893 -0.804347 10.409842
-0.048015 -0.802849 10.390449
-0.031257 -0.802851 10.390477
-0.014486 -0.802088 10.380610
0.002254 -0.801283 10.370181
0.018977 -0.801204 10.369165
0.035634 -0.799709 10.349815
0.052325 -0.799701 10.349709
0.069017 -0.799690 10.349576
0.085618 -0.798850 10.338698
0.102197 -0.798103 10.329034
0.118853 -0.798087 10.328820
0.135508 -0.798068 10.328578
0.152162 -0.798047 10.328310
0.168815 -0.798024 10.328014
0.185466 -0.797999 10.327691
0.202116 -0.797973 10.327344
0.218877 -0.798356 10.332310
0.235998 -0.799906 10.352369
0.253184 -0.801457 10.372444
0.270641 -0.803619 10.400425
0.288315 -0.806135 10.432978
0.306241 -0.809040 10.470581
0.324075 -0.811412 10.501282
0.342091 -0.813981 10.534523
0.360475 -0.817141 10.575415
0.378995 -0.820311 10.616440
0.397518 -0.823210 10.653970
0.415636 -0.825068 10.678011
0.434376 -0.827961 10.715454
0.452964 -0.830357 10.746456
0.472339 -0.833963 10.793126
0.492061 -0.837906 10.844161
0.511518 -0.841141 10.886027
0.531117 -0.844387 10.928036
0.551396 -0.848472 10.980905
0.571857 -0.852573 11.033976
0.593080 -0.857528 11.098114
0.614285 -0.862169 11.158175
0.636205 -0.867520 11.227426
0.658112 -0.872557 11.292610
0.680250 -0.877621 11.358149
0.702618 -0.882709 11.424001
0.725704 -0.888415 11.497846
0.748570 -0.893575 11.564631
0.772097 -0.899253 11.638112
0.795467 -0.904484 11.705814
0.818614 -0.909224 11.767159
0.841834 -0.913829 11.826756
0.866530 -0.919797 11.903989
0.890185 -0.924424 11.963876
0.915442 -0.930484 12.042298
0.939534 -0.935132 12.102460
0.965978 -0.941884 12.189843
0.991618 -0.947599 12.263803
1.016978 -0.952828 12.331484
1.042171 -0.957703 12.394574
1.069023 -0.963890 12.474639
1.094684 -0.968795 12.538116
1.121340 -0.974386 12.610482
1.147229 -0.979124 12.671797
1.174378 -0.984751 12.744630
1.201460 -0.990131 12.814251
1.229356 -0.995988 12.890054
1.257176 -1.001589 12.962547
1.285606 -1.007486 13.038858
1.314007 -1.013170 13.112424
1.342970 -1.019101 13.189177
1.371971 -1.024874 13.263902
1.401539 -1.030888 13.341729
1.431150 -1.036751 13.417613
1.463937 -1.044707 13.520568
1.495921 -1.051863 13.613187
1.528261 -1.059060 13.706325
1.560618 -1.066062 13.796951
1.595063 -1.074274 13.903233
1.626773 -1.080442 13.983060
1.658778 -1.086635 14.063208
1.694296 -1.094931 14.170570
1.732750 -1.104878 14.299306
1.780865 -1.120643 14.503338
1.818140 -1.129267 14.614944
1.853671 -1.136600 14.709849
1.889894 -1.144167 14.807779
1.924910 -1.150824 14.893932
1.959785 -1.157233 14.976879
1.992403 -1.162170 15.040772
2.019145 -1.163601 15.059297
2.051789 -1.168359 15.120880
2.096575 -1.179839 15.269448
2.138931 -1.189700 15.397076
2.179924 -1.198586 15.512073
2.217490 -1.205407 15.600347
2.255880 -1.212518 15.692382
2.292968 -1.218779 15.773410
2.328425 -1.224045 15.841568
2.367232 -1.230939 15.930783
2.410427 -1.239942 16.047300
2.438548 -1.241082 16.062057
6.924144 -3.486953 45.128067
17.079754 -8.511781 110.159271
17.390298 -8.577320 111.007477
17.573617 -8.579412 111.034561
17.786064 -8.595540 111.243279
17.941852 -8.584236 111.096992
18.164119 -8.604649 111.361168
18.416123 -8.638610 111.800697
18.609687 -8.644766 111.880371
18.785192 -8.642496 111.850983
19.017145 -8.665991 112.155060
19.210491 -8.671617 112.227867
19.445172 -8.695622 112.538536
19.638239 -8.700746 112.604851
19.814408 -8.698357 112.573944
19.990205 -8.695851 112.541504
20.210179 -8.712434 112.756119
20.446370 -8.735650 113.056580
20.662872 -8.750117 113.243820
20.854636 -8.753947 113.293388
21.031280 -8.751420 113.260674
21.207771 -8.748872 113.227699
21.383929 -8.746231 113.193527
21.590164 -8.755833 113.317795
21.814395 -8.772511 113.533638
22.045555 -8.791675 113.781654
22.222337 -8.789015 113.747231
22.425408 -8.796711 113.846832
22.614158 -8.798710 113.872704
22.790376 -8.795840 113.835564
22.927301 -8.777973 113.604324
22.975938 -8.726854 112.942749
23.137568 -8.719120 112.842651
23.111903 -8.641478 111.837807
23.020628 -8.540696 110.533493
22.681559 -8.350238 108.068588
22.316227 -8.153089 105.517097
22.152001 -8.031842 103.947914
22.042034 -7.931941 102.654999
22.017635 -7.864092 101.776901
22.041874 -7.814491 101.134964
22.070990 -7.767335 100.524673
22.129295 -7.731064 100.055260
22.204355 -7.701130 99.667847
22.304664 -7.680320 99.398521
22.408206 -7.660912 99.147346
22.560226 -7.658235 99.112709
22.710223 -7.654915 99.069733
22.823964 -7.639505 98.870300
22.975283 -7.636800 98.835289
23.166289 -7.647232 98.970306
-14.281180 -4.186421 55.389824
-14.166517 -4.178948 55.290958
-14.083094 -4.180656 55.313545
-13.998808 -4.182126 55.333004
-13.915165 -4.183810 55.355274
-13.831085 -4.185382 55.376083
-13.745259 -4.186443 55.390121
-13.582834 -4.164036 55.093655
-13.388457 -4.131474 54.662827
-13.175893 -4.092830 54.151539
-12.996979 -4.064193 53.772648
-12.915224 -4.065757 53.793346
-12.860478 -4.075903 53.927582
-12.782047 -4.078629 53.963650
-12.713945 -4.084711 54.044117
-12.586144 -4.071564 53.870178
-12.499201 -4.071545 53.869915
-12.324647 -4.042786 53.489414
-12.209636 -4.033291 53.363789
-12.057321 -4.011251 53.072178
-11.921133 -3.994299 52.847889
-11.796354 -3.980953 52.671318
-11.689402 -3.973473 52.572353
-11.569808 -3.961556 52.414677
-11.463459 -3.954032 52.315121
-11.356696 -3.946252 52.212189
-11.247346 -3.937450 52.095734
-11.140305 -3.929330 51.988300
-11.027682 -3.919103 51.852993
-10.919952 -3.910473 51.738800
-10.813856 -3.902298 51.630650
-10.706382 -3.893496 51.514191
-10.601235 -3.885409 51.407192
-10.505518 -3.880678 51.344597
-10.396235 -3.870821 51.214176
-10.295665 -3.864076 51.124935
-10.197356 -3.858078 51.045570
-10.088332 -3.847894 50.910839
-9.956873 -3.828917 50.659752
-9.824477 -3.809262 50.399700
-9.694196 -3.790106 50.146248
-9.578375 -3.776329 49.963966
-9.471806 -3.765996 49.827259
-9.380286 -3.761522 49.768055
-9.298460 -3.760891 49.759705
-9.220830 -3.761960 49.773857
-9.153015 -3.767088 49.841709
-9.075170 -3.768143 49.855659
-9.023023 -3.779982 50.012299
-8.965533 -3.789776 50.141884
-8.910654 -3.800862 50.288559
-8.828948 -3.800604 50.285141
-8.753276 -3.802962 50.316341
-8.679784 -3.806320 50.360771
-8.626541 -3.818705 50.524639
-8.607787 -3.846740 50.895561
-8.576151 -3.869501 51.196716
-8.521168 -3.882069 51.363003
-8.442778 -3.884116 51.390079
-8.355089 -3.881882 51.360527
-8.274323 -3.882853 51.373367
-8.182902 -3.878792 51.319645
-8.102113 -3.879740 51.332188
-8.015413 -3.877848 51.307148
-7.927446 -3.875297 51.273396
-7.798195 -3.852298 50.969097
-7.595060 -3.791921 50.170258
-7.836436 -3.954561 52.322121
-1.886905 -0.962568 12.735579
-1.632166 -0.841782 11.137471
-1.607319 -0.838191 11.089967
-1.588238 -0.837561 11.081629
-1.567647 -0.836111 11.062444
-1.550203 -0.836325 11.065279
-1.529750 -0.834903 11.046460
-1.512170 -0.835033 11.048176
-1.491749 -0.833579 11.028939
-1.472946 -0.833005 11.021341
-1.453934 -0.832297 11.011975
-1.435159 -0.831708 11.004192
-1.416178 -0.830984 10.994613
-1.396056 -0.829564 10.975821
-1.378624 -0.829726 10.977970
-1.359856 -0.829079 10.969402
-1.341116 -0.828431 10.960833
-1.321115 -0.826976 10.941586
-1.303710 -0.827130 10.943619
-1.286305 -0.827288 10.945703
-1.266406 -0.825823 10.926321
-1.248602 -0.825702 10.924728
-1.229203 -0.824509 10.908939
-1.211819 -0.824652 10.910830
-1.194216 -0.824648 10.910775
-1.174736 -0.823328 10.893310
-1.156049 -0.822532 10.882785
-1.137757 -0.821997 10.875706
-1.119834 -0.821717 10.871993
-1.100883 -0.820660 10.858019
-1.081426 -0.819187 10.838522
-1.064115 -0.819317 10.840249
-1.044748 -0.817842 10.820730
-1.027156 -0.817731 10.819254
-1.008176 -0.816491 10.802857
-0.990896 -0.816608 10.804408
-0.972374 -0.815688 10.792235
-0.954451 -0.815247 10.786395
-0.935358 -0.813771 10.766868
-0.918116 -0.813880 10.768303
-0.899672 -0.812907 10.755429
-0.881556 -0.812198 10.746051
-0.862975 -0.811023 10.730503
-0.845777 -0.811127 10.731877
-0.828568 -0.811224 10.733172
-0.811356 -0.811322 10.734464
-0.793789 -0.811063 10.731033
-0.775396 -0.809928 10.716018
-0.757107 -0.808853 10.701795
-0.739548 -0.808526 10.697469
-0.722025 -0.808223 10.693464
-0.703816 -0.807120 10.678864
-0.686315 -0.806792 10.674533
-0.668199 -0.805707 10.660179
-0.650724 -0.805359 10.655562
-0.632698 -0.804289 10.641410
-0.614637 -0.803115 10.625881
-0.597314 -0.802865 10.622572
-0.579315 -0.801666 10.606708
-0.561716 -0.800963 10.597408
-0.543926 -0.799936 10.583816
-0.526897 -0.799999 10.584645
-0.508870 -0.798498 10.564797
-0.491868 -0.798557 10.565576
-0.474071 -0.797286 10.548751
-0.456957 -0.797109 10.546420
-0.439977 -0.797162 10.547114
-0.422360 -0.796018 10.531975
-0.405214 -0.795705 10.527835
-0.388258 -0.795751 10.528445
-0.370649 -0.794405 10.510636
-0.353644 -0.794283 10.509029
-0.336712 -0.794323 10.509557
-0.319777 -0.794361 10.510054
-0.302249 -0.792846 10.490016
-0.285343 -0.792880 10.490457
-0.267911 -0.791364 10.470402
-0.250833 -0.790763 10.462447
-0.233697 -0.789876 10.450714
-0.216671 -0.789253 10.442477
-0.199609 -0.788383 10.430957
-0.182791 -0.788403 10.431232
-0.165971 -0.788422 10.431479
-0.149151 -0.788439 10.431702
-0.132072 -0.786923 10.411649
-0.115281 -0.786928 10.411706
-0.098490 -0.786938 10.411845
-0.081699 -0.786946 10.411955
-0.064780 -0.785417 10.391722
-0.048021 -0.785422 10.391779
-0.031261 -0.785424 10.391809
-0.014473 -0.783891 10.371534
0.002254 -0.783890 10.371510
0.018944 -0.782356 10.351221
0.035638 -0.782350 10.351141
0.052332 -0.782342 10.351034
0.068953 -0.781516 10.340105
0.085551 -0.780793 10.330544
0.102210 -0.780779 10.330357
0.118868 -0.780763 10.330142
0.135502 -0.780607 10.328076
0.152012 -0.779856 10.318141
0.168507 -0.779179 10.309182
0.185128 -0.779154 10.308859
0.202008 -0.780134 10.321815
0.218792 -0.780623 10.328288
0.235900 -0.782118 10.348075
0.253217 -0.784061 10.373772
0.270470 -0.785579 10.393856
0.288351 -0.788636 10.434312
0.305988 -0.790724 10.461930
0.323884 -0.793231 10.495100
0.342135 -0.796312 10.535870
0.360521 -0.799403 10.576767
0.378836 -0.802065 10.611988
0.396928 -0.804044 10.638167
0.415539 -0.806866 10.675506
0.434009 -0.809201 10.706399
0.452743 -0.811831 10.741201
0.471883 -0.814970 10.782727
0.491164 -0.818118 10.824385
0.511130 -0.822153 10.877768
0.531185 -0.826058 10.929432
0.550928 -0.829243 10.971571
0.571387 -0.833274 11.024911
0.592608 -0.838139 11.089279
0.614055 -0.843031 11.153997
0.635420 -0.847533 11.213559
0.657638 -0.852893 11.284484
0.679777 -0.857865 11.350265
0.702148 -0.862861 11.416363
0.725063 -0.868252 11.487694
0.747907 -0.873293 11.554388
0.771243 -0.878649 11.625250
0.794568 -0.883737 11.692579
0.818131 -0.888849 11.760215
0.841695 -0.893731 11.824807
0.865994 -0.899159 11.896624
0.890059 -0.904114 11.962180
0.914614 -0.909346 12.031405
0.939145 -0.914338 12.097450
0.964713 -0.920115 12.173884
0.989802 -0.925214 12.241352
1.015595 -0.930759 12.314711
1.041214 -0.935935 12.383194
1.067514 -0.941516 12.457035
1.093673 -0.946769 12.526535
1.120301 -0.952231 12.598801
1.146988 -0.957546 12.669130
1.173286 -0.962357 12.732781
1.200703 -0.967905 12.806183
1.227254 -0.972578 12.868016
1.256355 -0.979083 12.954084
1.283379 -0.983783 13.016272
1.313119 -0.990381 13.103559
1.340614 -0.995103 13.166035
1.371011 -1.001798 13.254625
1.400391 -1.007556 13.330803
1.431265 -1.014199 13.418692
1.461312 -1.020066 13.496317
1.491587 -1.025918 13.573750
1.523771 -1.032895 13.666058
1.556056 -1.039740 13.756622
1.588966 -1.046804 13.850087
1.621980 -1.053740 13.941860
1.655708 -1.060945 14.037181
1.687976 -1.067031 14.117706
1.724056 -1.075333 14.227554
1.767351 -1.087859 14.393281
1.809794 -1.099542 14.547851
1.848830 -1.108882 14.671433
1.884855 -1.116204 14.768304
1.921354 -1.123619 14.866417
1.954660 -1.129008 14.937716
1.987651 -1.134086 15.004893
2.016873 -1.136917 15.042354
2.049456 -1.141552 15.103687
2.090552 -1.150765 15.225582
2.137304 -1.162842 15.385362
2.175931 -1.170271 15.483657
2.213909 -1.177187 15.575157
2.256163 -1.186195 15.694350
2.294473 -1.192953 15.783764
2.330536 -1.198408 15.855927
2.367528 -1.204216 15.932777
2.411547 -1.213435 16.054758
2.429188 -1.209327 16.000404
4.614427 -2.273062 30.074503
16.914644 -8.245466 109.094360
17.318154 -8.355255 110.546959
17.528612 -8.370616 110.750206
17.858463 -8.442108 111.696098
17.944093 -8.397875 111.110863
18.134712 -8.403167 111.180878
18.364676 -8.426408 111.488373
18.612006 -8.457089 111.894310
18.787529 -8.454866 111.864899
18.962735 -8.452544 111.834175
19.137975 -8.450281 111.804230
19.354324 -8.466041 112.012756
19.585273 -8.487838 112.301147
19.816868 -8.509513 112.587921
19.992685 -8.507060 112.555466
20.168574 -8.504682 112.524002
20.344319 -8.502285 112.492294
20.584414 -8.526587 112.813828
20.820277 -8.548725 113.106735
20.996628 -8.546256 113.074059
21.210393 -8.558926 113.241699
21.386571 -8.556342 113.207512
21.562778 -8.553814 113.174057
21.738506 -8.551139 113.138672
21.875579 -8.533431 112.904373
22.050995 -8.530848 112.870201
22.226091 -8.528184 112.834961
22.440937 -8.540693 113.000458
22.615803 -8.537906 112.963593
22.790880 -8.535244 112.928360
22.895066 -8.506284 112.545204
22.870647 -8.430376 111.540871
22.673899 -8.292625 109.718315
22.328875 -8.103198 107.212044
21.879275 -7.879024 104.246025
21.745599 -7.771169 102.819016
21.684003 -7.690510 101.751839
21.771479 -7.663537 101.394958
21.762995 -7.603440 100.599823
21.825113 -7.568716 100.140396
21.899815 -7.538835 99.745041
21.959633 -7.504302 99.288147
22.032109 -7.474564 98.894691
22.136832 -7.456115 98.650597
22.240101 -7.437443 98.403549
22.387387 -7.433652 98.353386
22.538131 -7.431053 98.319008
22.688128 -7.428247 98.281876
22.838541 -7.425615 98.247047
23.037417 -7.438667 98.419746
-14.170923 -4.061384 54.962189
-14.086276 -4.062536 54.977783
-13.948876 -4.048393 54.786381
-13.840923 -4.042670 54.708935
-13.758226 -4.044298 54.730961
-13.703708 -4.054283 54.866096
-13.592204 -4.047430 54.773346
-13.473406 -4.038300 54.649799
-13.287629 -4.008843 54.251160
-13.080441 -3.972493 53.759239
-12.995289 -3.972967 53.765656
-12.893165 -3.968224 53.701469
-12.814896 -3.970808 53.736443
-12.752344 -3.978331 53.838249
-12.670008 -3.979743 53.857353
-12.587586 -3.981147 53.876350
-12.466719 -3.970327 53.729923
-12.320996 -3.951384 53.473568
-12.146164 -3.922772 53.086376
-12.023738 -3.910800 52.924358
-11.886559 -3.893824 52.694618
-11.771493 -3.883899 52.560310
-11.636277 -3.867134 52.333431
-11.522092 -3.857164 52.198509
-11.408826 -3.847357 52.065796
-11.305548 -3.840799 51.977036
-11.200319 -3.833474 51.877911
-11.091435 -3.824779 51.760239
-10.978465 -3.814532 51.621571
-10.878189 -3.808573 51.540924
-10.776608 -3.802061 51.452808
-10.665716 -3.792138 51.318523
-10.566159 -3.786122 51.237103
-10.455320 -3.775936 51.099258
-10.356495 -3.769962 51.018410
-10.247248 -3.760068 50.884514
-10.143430 -3.752022 50.775627
-10.020652 -3.736775 50.569294
-9.869494 -3.710607 50.215172
-9.724572 -3.686371 49.887184
-9.613720 -3.674753 49.729961
-9.508451 -3.665092 49.599216
-9.427247 -3.664621 49.592850
-9.325706 -3.656170 49.478474
-9.244981 -3.655803 49.473515
-9.164385 -3.655482 49.469170
-9.082383 -3.654590 49.457092
-9.005139 -3.655613 49.470940
-8.952877 -3.666886 49.623501
-8.904462 -3.679953 49.800327
-8.847190 -3.689564 49.930393
-8.786028 -3.697714 50.040688
-8.710649 -3.699976 50.071304
-8.649065 -3.708196 50.182537
-8.584596 -3.715322 50.278976
-8.543525 -3.732807 50.515594
-8.530963 -3.763204 50.926960
-8.492140 -3.782496 51.188030
-8.418091 -3.786322 51.239811
-8.343442 -3.789952 51.288933
-8.258668 -3.789009 51.276169
-8.162145 -3.782602 51.189468
-8.079883 -3.782741 51.191345
-7.990962 -3.779732 51.150635
-7.897101 -3.774301 51.077126
-7.761287 -3.748492 50.727863
-7.550404 -3.685491 49.875275
-8.332327 -4.110959 55.633076
-1.772654 -0.884103 11.964449
-1.633758 -0.823797 11.148335
-1.609083 -0.820383 11.102136
-1.587077 -0.818269 11.073527
-1.567832 -0.817547 11.063753
-1.550328 -0.817725 11.066173
-1.529932 -0.816365 11.047769
-1.509446 -0.814925 11.028277
-1.491926 -0.815071 11.030249
-1.471566 -0.813650 11.011017
-1.454042 -0.813781 11.012791
-1.433808 -0.812380 10.993832
-1.413644 -0.810984 10.974941
-1.396222 -0.811145 10.977126
-1.378585 -0.811185 10.977665
-1.358696 -0.809883 10.960046
-1.339912 -0.809214 10.950987
-1.321272 -0.808615 10.942888
-1.303714 -0.808672 10.943651
-1.283949 -0.807341 10.925647
-1.266557 -0.807487 10.927624
-1.246720 -0.806057 10.908259
-1.229350 -0.806203 10.910240
-1.211751 -0.806201 10.910213
-1.192246 -0.804912 10.892775
-1.174642 -0.804887 10.892435
-1.155241 -0.803612 10.875174
-1.137639 -0.803567 10.874574
-1.118346 -0.802309 10.857547
-1.100432 -0.802015 10.853569
-1.081555 -0.800999 10.839819
-1.062943 -0.800149 10.828309
-1.044577 -0.799458 10.818961
-1.025568 -0.798244 10.802534
-1.008297 -0.798364 10.804152
-0.990698 -0.798223 10.802256
-0.971829 -0.797037 10.786196
-0.953865 -0.796562 10.779778
-0.935471 -0.795704 10.768160
-0.917506 -0.795186 10.761147
-0.899219 -0.794363 10.750010
-0.880800 -0.793389 10.736833
-0.863078 -0.793017 10.731792
-0.845878 -0.793118 10.733166
-0.827912 -0.792490 10.724672
-0.810308 -0.792190 10.720603
-0.792682 -0.791855 10.716070
-0.774374 -0.790807 10.701890
-0.756810 -0.790490 10.697598
-0.739637 -0.790575 10.698754
-0.721051 -0.789119 10.679048
-0.703542 -0.788798 10.674705
-0.685405 -0.787740 10.660390
-0.668280 -0.787820 10.661462
-0.650149 -0.786688 10.646147
-0.632774 -0.786433 10.642692
-0.614465 -0.784970 10.622902
-0.597038 -0.784584 10.617677
-0.579169 -0.783576 10.604029
-0.561214 -0.782387 10.587938
-0.543991 -0.782176 10.585091
-0.526103 -0.780964 10.568680
-0.508932 -0.780771 10.566071
-0.491606 -0.780319 10.559953
-0.473991 -0.779359 10.546970
-0.457013 -0.779413 10.547692
-0.440030 -0.779464 10.548388
-0.422219 -0.777992 10.528470
-0.405263 -0.778039 10.529105
-0.388023 -0.777521 10.522090
-0.370618 -0.776608 10.509743
-0.353686 -0.776649 10.510298
-0.336752 -0.776688 10.510824
-0.319569 -0.776126 10.503208
-0.302286 -0.775244 10.491282
-0.285150 -0.774660 10.483375
-0.267943 -0.773795 10.471666
-0.250623 -0.772466 10.453689
-0.233725 -0.772340 10.451976
-0.216484 -0.770971 10.433446
-0.199633 -0.770880 10.432217
-0.182813 -0.770900 10.432492
-0.165992 -0.770918 10.432739
-0.149169 -0.770935 10.432961
-0.132087 -0.769445 10.412798
-0.115295 -0.769457 10.412964
-0.098502 -0.769467 10.413102
-0.081632 -0.768750 10.403399
-0.064788 -0.767980 10.392977
-0.048027 -0.767984 10.393034
-0.031261 -0.767884 10.391671
-0.014475 -0.766488 10.372787
0.002252 -0.765712 10.362281
0.018947 -0.764987 10.352470
0.035643 -0.764981 10.352392
0.052332 -0.764880 10.351020
0.068899 -0.763471 10.331951
0.085561 -0.763459 10.331791
0.102111 -0.762612 10.320324
0.118651 -0.761940 10.311232
0.135277 -0.761922 10.310990
0.151903 -0.761902 10.310722
0.168527 -0.761880 10.310427
0.185150 -0.761856 10.310103
0.201772 -0.761831 10.309756
0.218671 -0.762780 10.322609
0.235773 -0.764251 10.342508
0.252940 -0.765722 10.362423
0.270428 -0.767925 10.392225
0.288028 -0.770170 10.422613
0.305806 -0.772617 10.455725
0.323923 -0.775620 10.496366
0.341864 -0.777923 10.527533
0.359861 -0.780130 10.557403
0.378350 -0.783157 10.598357
0.396976 -0.786193 10.639450
0.415184 -0.788183 10.666385
0.433793 -0.790748 10.701092
0.452564 -0.793399 10.736962
0.471940 -0.796876 10.784027
0.491223 -0.799955 10.825689
0.510647 -0.803043 10.867484
0.530212 -0.806142 10.909420
0.550743 -0.810463 10.967896
0.571188 -0.814393 11.021070
0.592070 -0.818689 11.079208
0.613482 -0.823445 11.143581
0.635122 -0.828228 11.208299
0.657378 -0.833527 11.280013
0.679091 -0.837871 11.338798
0.701853 -0.843248 11.411567
0.724445 -0.848150 11.477901
0.747693 -0.853557 11.551078
0.770781 -0.858523 11.618280
0.794112 -0.863517 11.685867
0.817682 -0.868534 11.753764
0.841501 -0.873582 11.822076
0.865023 -0.878105 11.883286
0.889878 -0.883755 11.959749
0.913174 -0.887651 12.012463
0.938639 -0.893449 12.090925
0.963684 -0.898619 12.160897
0.989656 -0.904431 12.239544
1.014539 -0.909039 12.301908
1.040354 -0.914289 12.372956
1.065559 -0.918816 12.434218
1.092773 -0.924876 12.516230
1.118434 -0.929426 12.577797
1.145273 -0.934775 12.650191
1.172204 -0.940011 12.721046
1.199594 -0.945428 12.794353
1.227081 -0.950737 12.866197
1.255190 -0.956343 12.942068
1.283263 -0.961739 13.015094
1.310683 -0.966480 13.079253
1.340561 -0.972854 13.165513
1.369728 -0.978523 13.242220
1.398997 -0.984088 13.317532
1.428761 -0.989828 13.395215
1.458672 -0.995497 13.471940
1.491739 -1.003123 13.575133
1.522330 -1.008886 13.653128
1.553219 -1.014680 13.731537
1.587467 -1.022475 13.837024
1.619006 -1.028333 13.916300
1.650913 -1.034261 13.996526
1.684839 -1.041278 14.091476
1.717356 -1.047248 14.172268
1.755423 -1.056401 14.296140
1.796027 -1.066823 14.437185
1.838634 -1.078154 14.590522
1.879685 -1.088298 14.727796
1.914329 -1.094525 14.812064
1.952522 -1.102602 14.921376
1.985466 -1.107555 14.988399
2.015217 -1.110629 15.030002
2.046050 -1.114219 15.078589
2.087103 -1.123225 15.200460
2.133332 -1.134775 15.356767
2.172390 -1.142290 15.458463
2.214171 -1.151049 15.577000
2.255897 -1.159584 15.692499
2.293527 -1.165846 15.777251
2.330811 -1.171799 15.857800
2.363188 -1.175181 15.903567
2.407390 -1.184308 16.027082
2.428028 -1.181772 15.992766
2.888730 -1.391226 18.827282
16.953395 -8.079903 109.344292
17.375983 -8.196050 110.916100
17.596774 -8.215615 111.180870
17.814129 -8.233198 111.418808
17.946202 -8.211407 111.123924
18.120782 -8.209305 111.095474
18.325885 -8.220937 111.252884
18.541621 -8.237066 111.471161
18.789735 -8.267131 111.878029
18.964959 -8.264860 111.847290
19.140218 -8.262646 111.817329
19.315339 -8.260415 111.787132
19.528756 -8.274451 111.977081
19.763302 -8.297100 112.283592
19.995022 -8.318162 112.568626
20.170933 -8.315837 112.537163
20.346695 -8.313493 112.505432
20.522118 -8.311053 112.472412
20.697320 -8.308567 112.438766
20.916141 -8.323482 112.640610
21.130165 -8.336247 112.813362
21.281443 -8.324252 112.651031
21.442074 -8.316087 112.540535
21.571847 -8.296191 112.271294
21.720093 -8.283672 112.101875
21.841034 -8.261032 111.795494
22.014461 -8.258453 111.760582
22.159608 -8.245392 111.583839
22.279802 -8.223332 111.285301
22.335292 -8.177934 110.670929
22.179299 -8.056436 109.026711
21.670096 -7.809558 105.685745
21.365895 -7.639836 103.388924
21.291196 -7.554171 102.229630
21.302647 -7.500154 101.498619
21.300846 -7.442330 100.716103
21.334453 -7.397660 100.111580
21.434227 -7.376431 99.824295
21.543053 -7.358611 99.583138
21.617357 -7.329350 99.187149
21.724768 -7.311661 98.947769
21.791122 -7.280513 98.526245
21.896829 -7.262868 98.287468
22.007685 -7.247173 98.075066
22.112019 -7.229570 97.836838
22.262028 -7.227043 97.802650
22.411925 -7.224516 97.768456
22.561078 -7.221787 97.731514
22.663403 -7.204209 97.493637
22.907339 -7.231579 97.864029
-13.980443 -3.915323 54.223408
-13.897452 -3.916580 54.240818
-13.762211 -3.903035 54.053226
-13.652034 -3.896470 53.962315
-13.545099 -3.890753 53.883133
-13.463259 -3.892216 53.903400
-13.381653 -3.893767 53.924877
-13.297035 -3.894456 53.934418
-13.163850 -3.880836 53.745792
-13.051294 -3.873157 53.639450
-12.921516 -3.860231 53.460434
-12.817665 -3.854928 53.387001
-12.765868 -3.865315 53.530853
-12.734072 -3.881942 53.761108
-12.671478 -3.889342 53.863602
-12.579261 -3.887690 53.840721
-12.429338 -3.868057 53.568817
-12.311468 -3.858193 53.432217
-12.141852 -3.831860 53.067528
-12.001444 -3.814436 52.826225
-11.856566 -3.795332 52.561657
-11.729721 -3.781767 52.373795
-11.603692 -3.768271 52.186882
-11.486432 -3.757446 52.036961
-11.372464 -3.747545 51.899853
-11.262695 -3.738893 51.780022
-11.157583 -3.731668 51.679966
-11.049103 -3.723200 51.562691
-10.940630 -3.714606 51.443668
-10.842876 -3.709547 51.373615
-10.739725 -3.702550 51.276711
-10.636019 -3.695252 51.175636
-10.535691 -3.689022 51.089359
-10.421651 -3.677855 50.934704
