ply
format ascii 1.0
comment generated by convert_depth_to_ply.py
element vertex 1679
property float x
property float y
property float z
end_header
-0.073162 -0.029520 0.846957
-0.071152 -0.029513 0.846750
-0.069147 -0.029508 0.846593
-0.067223 -0.029537 0.847437
-0.065241 -0.029542 0.847587
-0.063258 -0.029548 0.847733
-0.061274 -0.029552 0.847875
-0.059289 -0.029557 0.848012
-0.057303 -0.029562 0.848143
-0.055287 -0.029551 0.847830
-0.053328 -0.029571 0.848395
-0.051340 -0.029575 0.848513
-0.049350 -0.029579 0.848626
-0.047360 -0.029582 0.848735
-0.045369 -0.029586 0.848839
-0.043377 -0.029590 0.848939
-0.041419 -0.029617 0.849739
-0.039436 -0.029630 0.850093
-0.037463 -0.029651 0.850698
-0.035473 -0.029660 0.850950
-0.033474 -0.029662 0.851026
-0.031474 -0.029665 0.851097
-0.029474 -0.029667 0.851163
-0.027456 -0.029650 0.850662
-0.025453 -0.029647 0.850591
-0.023453 -0.029649 0.850644
-0.021453 -0.029651 0.850691
-0.019453 -0.029652 0.850734
-0.017433 -0.029620 0.849802
-0.015434 -0.029621 0.849835
-0.013462 -0.029680 0.851525
-0.011459 -0.029680 0.851549
-0.009463 -0.029704 0.852211
-0.007467 -0.029738 0.853189
-0.005460 -0.029740 0.853257
-0.003456 -0.029764 0.853931
-0.001448 -0.029798 0.854908
0.000563 -0.029822 0.855613
0.002576 -0.029822 0.855613
0.004598 -0.029880 0.857269
0.006614 -0.029881 0.857297
0.008648 -0.029939 0.858970
0.010689 -0.029996 0.860589
0.012748 -0.030078 0.862967
0.014823 -0.030170 0.865591
0.016906 -0.030253 0.867980
0.019005 -0.030345 0.870603
0.021113 -0.030431 0.873085
0.023255 -0.030546 0.876374
0.025367 -0.030607 0.878136
0.027539 -0.030725 0.881526
0.029723 -0.030840 0.884804
0.031924 -0.030956 0.888149
0.034116 -0.031049 0.890824
0.036355 -0.031172 0.894354
0.038642 -0.031320 0.898596
0.040911 -0.031440 0.902034
0.043282 -0.031622 0.907250
0.045688 -0.031811 0.912680
0.048166 -0.032031 0.918984
0.050718 -0.032279 0.926113
0.053319 -0.032537 0.933514
0.055952 -0.032793 0.940848
0.058761 -0.033129 0.950490
0.061855 -0.033595 0.963865
0.071273 -0.037341 1.071347
0.096893 -0.049031 1.406711
0.098403 -0.048150 1.381453
0.101976 -0.048303 1.385848
0.105470 -0.048411 1.388924
0.109050 -0.048550 1.392920
0.112442 -0.048599 1.394343
0.115926 -0.048685 1.396811
0.119443 -0.048780 1.399519
0.123011 -0.048889 1.402658
0.126667 -0.049027 1.406618
0.130232 -0.049124 1.409379
0.133779 -0.049209 1.411831
0.137378 -0.049308 1.414685
0.140918 -0.049383 1.416818
0.144400 -0.049434 1.418283
0.147916 -0.049494 1.420010
0.151414 -0.049546 1.421487
0.154786 -0.049554 1.421743
0.158243 -0.049590 1.422750
0.161677 -0.049616 1.423523
0.165105 -0.049640 1.424201
0.168447 -0.049638 1.424136
0.171872 -0.049659 1.424757
0.175237 -0.049663 1.424860
0.178645 -0.049679 1.425313
0.182012 -0.049683 1.425421
0.185418 -0.049697 1.425824
0.188841 -0.049715 1.426345
0.192194 -0.049714 1.426328
0.195486 -0.049698 1.425866
0.198945 -0.049724 1.426620
0.202257 -0.049714 1.426307
0.205660 -0.049725 1.426636
0.209121 -0.049750 1.427354
0.212431 -0.049739 1.427032
0.215800 -0.049742 1.427112
0.219079 -0.049724 1.426600
0.222354 -0.049706 1.426086
0.225730 -0.049710 1.426215
0.229115 -0.049717 1.426405
0.232383 -0.049698 1.425865
0.235643 -0.049678 1.425297
0.238920 -0.049663 1.424846
0.242161 -0.049640 1.424189
0.245413 -0.049620 1.423622
0.248415 -0.049551 1.421635
0.251419 -0.049484 1.419712
0.254646 -0.049462 1.419084
0.257877 -0.049441 1.418494
0.261098 -0.049419 1.417867
0.264174 -0.049371 1.416473
0.267278 -0.049329 1.415268
0.270225 -0.049259 1.413266
0.273153 -0.049187 1.411215
0.276083 -0.049118 1.409230
0.279000 -0.049048 1.407219
0.282161 -0.049022 1.406473
0.285056 -0.048951 1.404436
0.287625 -0.048826 1.400855
0.290153 -0.048698 1.397164
0.298140 -0.049478 1.419541
0.236872 -0.038875 1.115334
0.235846 -0.038282 1.098337
0.236969 -0.038048 1.091607
0.238441 -0.037873 1.086610
0.239931 -0.037706 1.081803
0.241525 -0.037558 1.077564
0.243112 -0.037412 1.073377
0.244911 -0.037302 1.070203
0.246572 -0.037173 1.066500
0.248321 -0.037059 1.063245
0.250192 -0.036966 1.060575
0.252267 -0.036905 1.058812
0.254183 -0.036821 1.056424
0.256103 -0.036740 1.054095
0.258223 -0.036689 1.052631
0.259967 -0.036586 1.049675
0.261363 -0.036436 1.045380
0.262280 -0.036223 1.039269
0.263617 -0.036072 1.034921
0.265440 -0.035989 1.032540
0.267280 -0.035910 1.030271
0.269273 -0.035853 1.028628
0.271010 -0.035762 1.026042
0.272674 -0.035664 1.023228
0.274266 -0.035559 1.020196
0.276165 -0.035494 1.018349
0.278364 -0.035469 1.017631
0.281019 -0.035502 1.018577
0.284442 -0.035631 1.022268
0.289557 -0.035967 1.031924
0.304998 -0.037570 1.077916
0.319075 -0.038980 1.118368
0.322743 -0.039106 1.121973
0.323910 -0.038929 1.116898
0.326232 -0.038893 1.115852
0.328969 -0.038906 1.116233
0.331481 -0.038893 1.115852
0.335500 -0.039055 1.120505
0.340433 -0.039320 1.128116
0.344275 -0.039456 1.132024
0.346130 -0.039365 1.129388
0.347249 -0.039191 1.124410
0.348571 -0.039043 1.120157
0.349217 -0.038822 1.113813
0.351651 -0.038801 1.113223
0.354149 -0.038788 1.112843
0.356222 -0.038729 1.111143
0.357778 -0.038614 1.107868
0.359516 -0.038521 1.105200
0.360697 -0.038370 1.100868
0.362362 -0.038273 1.098066
0.364675 -0.038244 1.097252
0.367009 -0.038219 1.096516
0.369102 -0.038168 1.095071
0.371420 -0.038142 1.094311
0.374163 -0.038159 1.094804
0.377213 -0.038207 1.096184
0.379945 -0.038223 1.096627
0.382983 -0.038268 1.097939
0.386245 -0.038336 1.099874
0.389188 -0.038371 1.100878
0.392360 -0.038428 1.102516
0.395442 -0.038475 1.103880
0.398741 -0.038543 1.105826
0.401443 -0.038553 1.106102
0.404382 -0.038585 1.107026
0.407075 -0.038593 1.107267
0.409745 -0.038600 1.107443
0.412860 -0.038647 1.108814
0.416180 -0.038714 1.110712
0.419279 -0.038759 1.112002
-0.485353 -0.042170 1.299889
-0.483156 -0.042245 1.302210
-0.479958 -0.042233 1.301845
-0.474262 -0.042000 1.294657
-0.469760 -0.041870 1.290654
-0.465731 -0.041781 1.287908
-0.462120 -0.041729 1.286292
-0.458797 -0.041702 1.285458
-0.454904 -0.041622 1.283008
-0.450696 -0.041513 1.279629
-0.444614 -0.041228 1.270849
-0.423102 -0.039499 1.217548
-0.416722 -0.039168 1.207362
-0.412564 -0.039044 1.203517
-0.408676 -0.038943 1.200414
-0.404890 -0.038851 1.197568
-0.401450 -0.038790 1.195713
-0.398074 -0.038736 1.194023
-0.394828 -0.038693 1.192705
-0.391510 -0.038642 1.191144
-0.388263 -0.038598 1.189783
-0.385156 -0.038567 1.188830
-0.382167 -0.038548 1.188234
-0.379164 -0.038527 1.187581
-0.376326 -0.038522 1.187441
-0.373510 -0.038520 1.187370
-0.370806 -0.038529 1.187657
-0.367955 -0.038523 1.187470
-0.365287 -0.038536 1.187880
-0.362512 -0.038538 1.187944
-0.359673 -0.038534 1.187796
-0.357035 -0.038550 1.188317
-0.354207 -0.038547 1.188207
-0.351627 -0.038570 1.188936
-0.349206 -0.038612 1.190216
-0.346742 -0.038649 1.191370
-0.344152 -0.038673 1.192106
-0.341569 -0.038698 1.192881
-0.339223 -0.038751 1.194502
-0.336696 -0.038784 1.195506
-0.334423 -0.038846 1.197435
-0.332057 -0.038899 1.199064
-0.329766 -0.038962 1.200994
-0.327297 -0.039004 1.202304
-0.325104 -0.039081 1.204658
-0.322815 -0.039147 1.206693
-0.320707 -0.039236 1.209448
-0.318487 -0.039313 1.211829
-0.316320 -0.039398 1.214454
-0.314248 -0.039497 1.217494
-0.312180 -0.039598 1.220608
-0.310087 -0.039698 1.223678
-0.308482 -0.039862 1.228753
-0.306790 -0.040018 1.233569
-0.305373 -0.040214 1.239597
-0.304066 -0.040428 1.246192
-0.303411 -0.040734 1.255616
-0.306013 -0.041487 1.278831
-0.308756 -0.042274 1.303105
-0.307142 -0.042475 1.309294
-0.304940 -0.042598 1.313076
-0.302981 -0.042757 1.317991
-0.300319 -0.042820 1.319915
-0.308545 -0.044452 1.370237
-0.300301 -0.043721 1.347704
-0.214077 -0.031500 0.970995
-0.190479 -0.028330 0.873282
-0.187336 -0.028167 0.868233
-0.184702 -0.028077 0.865465
-0.181852 -0.027951 0.861604
-0.179389 -0.027884 0.859518
-0.176779 -0.027791 0.856667
-0.174161 -0.027695 0.853713
-0.171890 -0.027653 0.852411
-0.169616 -0.027609 0.851059
-0.167545 -0.027598 0.850711
-0.165302 -0.027558 0.849470
-0.163368 -0.027569 0.849806
-0.161127 -0.027527 0.848532
-0.159194 -0.027538 0.848867
-0.157266 -0.027550 0.849237
-0.155213 -0.027541 0.848937
-0.153097 -0.027519 0.848275
-0.151046 -0.027509 0.847966
-0.148936 -0.027488 0.847312
-0.146888 -0.027478 0.846995
-0.144938 -0.027486 0.847244
-0.142846 -0.027467 0.846656
-0.140907 -0.027477 0.846974
-0.138860 -0.027466 0.846641
-0.136918 -0.027476 0.846951
-0.134817 -0.027454 0.846265
-0.132873 -0.027464 0.846568
-0.130928 -0.027473 0.846865
-0.128881 -0.027462 0.846508
-0.126906 -0.027465 0.846617
-0.124837 -0.027448 0.846090
-0.122867 -0.027453 0.846230
-0.120843 -0.027445 0.845996
-0.118751 -0.027422 0.845273
-0.116800 -0.027430 0.845542
-0.114722 -0.027409 0.844889
-0.112672 -0.027394 0.844419
-0.110718 -0.027402 0.844671
-0.108764 -0.027410 0.844922
-0.106807 -0.027418 0.845170
-0.104849 -0.027426 0.845409
-0.102810 -0.027413 0.845002
-0.100850 -0.027420 0.845234
-0.098771 -0.027395 0.844461
-0.096810 -0.027403 0.844683
-0.094848 -0.027410 0.844903
-0.092884 -0.027417 0.845118
-0.090919 -0.027423 0.845328
-0.088952 -0.027430 0.845534
-0.086983 -0.027437 0.845735
-0.085014 -0.027443 0.845934
-0.083042 -0.027449 0.846124
-0.081070 -0.027455 0.846314
-0.079096 -0.027461 0.846494
-0.077121 -0.027467 0.846675
-0.075145 -0.027473 0.846847
-0.073167 -0.027478 0.847018
-0.071189 -0.027484 0.847183
-0.069209 -0.027489 0.847343
-0.067228 -0.027494 0.847498
-0.065246 -0.027499 0.847649
-0.063307 -0.027523 0.848390
-0.061278 -0.027508 0.847936
-0.059336 -0.027533 0.848694
-0.057375 -0.027549 0.849213
-0.055386 -0.027554 0.849341
-0.053395 -0.027558 0.849464
-0.051404 -0.027561 0.849582
-0.049412 -0.027565 0.849696
-0.047420 -0.027569 0.849805
-0.045450 -0.027587 0.850367
-0.043465 -0.027596 0.850660
-0.041468 -0.027600 0.850755
-0.039471 -0.027602 0.850845
-0.037507 -0.027630 0.851692
-0.035517 -0.027641 0.852022
-0.033516 -0.027643 0.852099
-0.031514 -0.027645 0.852170
-0.029484 -0.027621 0.851425
-0.027476 -0.027617 0.851288
-0.025475 -0.027619 0.851345
-0.023474 -0.027620 0.851397
-0.021472 -0.027622 0.851445
-0.019470 -0.027623 0.851487
-0.017456 -0.027606 0.850953
-0.015454 -0.027604 0.850907
-0.013462 -0.027624 0.851524
-0.011460 -0.027627 0.851611
-0.009457 -0.027628 0.851630
-0.007453 -0.027628 0.851645
-0.005461 -0.027683 0.853319
-0.003453 -0.027683 0.853324
-0.001446 -0.027683 0.853324
0.000562 -0.027704 0.853968
0.002571 -0.027704 0.853967
0.004585 -0.027736 0.854963
0.006601 -0.027757 0.855600
0.008614 -0.027757 0.855618
0.010647 -0.027809 0.857220
0.012688 -0.027863 0.858862
0.014739 -0.027920 0.860634
0.016796 -0.027974 0.862294
0.018895 -0.028079 0.865536
0.020988 -0.028155 0.867891
0.023099 -0.028241 0.870527
0.025216 -0.028318 0.872896
0.027351 -0.028403 0.875528
0.029495 -0.028484 0.878021
0.031682 -0.028594 0.881400
0.033885 -0.028704 0.884787
0.036104 -0.028814 0.888183
0.038340 -0.028924 0.891586
0.040592 -0.029035 0.894998
0.042881 -0.029159 0.898840
0.045243 -0.029320 0.903783
0.047658 -0.029499 0.909295
0.050124 -0.029692 0.915265
0.052682 -0.029922 0.922360
0.055277 -0.030154 0.929505
0.057923 -0.030395 0.936929
0.060836 -0.030754 0.947979
0.063898 -0.031160 0.960492
0.087055 -0.041002 1.263876
0.097592 -0.044447 1.370067
0.100849 -0.044461 1.370526
0.104415 -0.044608 1.375028
0.107905 -0.044714 1.378295
0.111383 -0.044808 1.381213
0.114795 -0.044872 1.383178
0.118257 -0.044951 1.385611
0.121783 -0.045050 1.388660
0.125336 -0.045153 1.391833
0.128960 -0.045276 1.395624
0.132512 -0.045368 1.398459
0.136131 -0.045478 1.401845
0.139752 -0.045583 1.405101
0.143260 -0.045647 1.407082
0.146750 -0.045704 1.408813
0.150294 -0.045774 1.410972
0.153843 -0.045842 1.413078
0.157314 -0.045885 1.414404
0.160853 -0.045945 1.416264
0.164263 -0.045967 1.416941
0.167715 -0.046000 1.417942
0.171169 -0.046032 1.418927
0.174537 -0.046040 1.419173
0.177954 -0.046060 1.419794
0.181310 -0.046064 1.419923
0.184700 -0.046076 1.420303
0.188166 -0.046107 1.421251
0.191450 -0.046093 1.420804
0.194898 -0.046118 1.421576
0.198197 -0.046107 1.421252
0.201620 -0.046125 1.421812
0.204947 -0.046121 1.421689
0.208395 -0.046144 1.422397
0.211694 -0.046134 1.422084
0.215065 -0.046140 1.422252
0.218443 -0.046146 1.422463
0.221710 -0.046130 1.421950
0.224969 -0.046112 1.421408
0.228228 -0.046095 1.420880
0.231483 -0.046078 1.420342
0.234730 -0.046059 1.419776
0.237990 -0.046044 1.419294
0.241223 -0.046023 1.418673
0.244102 -0.045937 1.416018
0.247219 -0.045898 1.414792
0.250289 -0.045850 1.413333
0.253412 -0.045814 1.412208
0.256632 -0.045795 1.411645
0.259933 -0.045792 1.411538
0.263040 -0.045755 1.410394
0.266243 -0.045735 1.409786
0.269178 -0.045670 1.407791
0.271936 -0.045578 1.404928
0.275006 -0.045539 1.403732
0.277919 -0.045475 1.401767
0.280910 -0.045425 1.400238
0.283776 -0.045357 1.398131
0.286039 -0.045195 1.393132
0.288372 -0.045047 1.388587
0.301751 -0.046609 1.436736
0.236340 -0.036101 1.112828
0.235967 -0.035650 1.098899
0.236740 -0.035379 1.090552
0.238087 -0.035199 1.084997
0.239353 -0.035010 1.079198
0.240702 -0.034838 1.073891
0.242178 -0.034688 1.069255
0.243814 -0.034563 1.065411
0.245226 -0.034410 1.060676
0.246770 -0.034277 1.056603
0.248387 -0.034158 1.052922
0.250310 -0.034083 1.050597
0.252172 -0.034001 1.048066
0.254000 -0.033915 1.045442
0.255910 -0.033843 1.043200
0.257712 -0.033757 1.040570
0.259323 -0.033649 1.037221
0.260798 -0.033525 1.033398
0.262386 -0.033417 1.030088
0.264316 -0.033355 1.028169
0.266186 -0.033286 1.026056
0.268032 -0.033216 1.023885
0.269696 -0.033125 1.021067
0.271438 -0.033044 1.018591
0.273086 -0.032954 1.015806
0.274685 -0.032859 1.012892
0.276596 -0.032803 1.011167
0.278762 -0.032778 1.010394
0.281430 -0.032812 1.011441
0.284213 -0.032859 1.012880
0.287068 -0.032913 1.014548
0.291708 -0.033169 1.022446
0.299802 -0.033811 1.042223
0.304147 -0.034023 1.048753
0.306608 -0.034022 1.048730
0.308299 -0.033937 1.046096
0.308091 -0.033645 1.037114
0.306912 -0.033253 1.025026
0.307117 -0.033016 1.017715
0.309062 -0.032968 1.016239
0.312193 -0.033046 1.018654
0.316090 -0.033204 1.023513
0.320885 -0.033453 1.031185
0.325188 -0.033647 1.037174
0.329358 -0.033825 1.042651
0.333392 -0.033986 1.047619
0.337483 -0.034151 1.052692
0.340732 -0.034228 1.055083
0.343049 -0.034212 1.054578
0.345860 -0.034244 1.055586
0.349731 -0.034381 1.059791
0.353954 -0.034550 1.064997
0.358712 -0.034768 1.071727
0.362450 -0.034885 1.075337
0.365580 -0.034943 1.077105
0.369178 -0.035044 1.080218
0.372653 -0.035132 1.082932
0.375195 -0.035131 1.082915
0.378318 -0.035185 1.084567
0.382323 -0.035319 1.088704
0.385816 -0.035404 1.091342
0.389215 -0.035480 1.093679
0.393031 -0.035593 1.097149
0.396943 -0.035713 1.100839
0.399885 -0.035744 1.101811
0.403044 -0.035794 1.103363
0.405759 -0.035805 1.103688
0.408332 -0.035803 1.103625
0.411664 -0.035867 1.105601
0.415150 -0.035944 1.107962
0.418734 -0.036028 1.110556
-0.481561 -0.038728 1.289733
-0.479675 -0.038821 1.292829
-0.476511 -0.038811 1.292494
-0.471492 -0.038648 1.287093
-0.467026 -0.038530 1.283142
-0.463291 -0.038470 1.281160
-0.460148 -0.038460 1.280802
-0.456567 -0.038412 1.279211
-0.452566 -0.038328 1.276414
-0.448538 -0.038240 1.273501
-0.442879 -0.038012 1.265891
-0.422844 -0.036538 1.216806
-0.416685 -0.036251 1.207254
-0.412376 -0.036122 1.202971
-0.408457 -0.036026 1.199769
-0.404741 -0.035947 1.197128
-0.401082 -0.035872 1.194618
-0.397760 -0.035825 1.193082
-0.394467 -0.035781 1.191613
-0.391292 -0.035747 1.190483
-0.388249 -0.035725 1.189739
-0.385008 -0.035684 1.188373
-0.381874 -0.035653 1.187322
-0.379184 -0.035662 1.187646
-0.376349 -0.035658 1.187513
-0.373435 -0.035647 1.187130
-0.370539 -0.035637 1.186801
-0.367977 -0.035659 1.187543
-0.365310 -0.035671 1.187953
-0.362534 -0.035673 1.188017
-0.359828 -0.035682 1.188307
-0.357057 -0.035685 1.188390
-0.354274 -0.035686 1.188433
-0.351713 -0.035710 1.189225
-0.349346 -0.035754 1.190694
-0.346763 -0.035776 1.191444
-0.344173 -0.035798 1.192180
-0.341858 -0.035850 1.193891
-0.339312 -0.035877 1.194815
-0.336879 -0.035918 1.196153
-0.334443 -0.035958 1.197510
-0.332139 -0.036014 1.199361
-0.329846 -0.036072 1.201286
-0.327386 -0.036112 1.202628
-0.325069 -0.036169 1.204527
-0.322889 -0.036242 1.206969
-0.320727 -0.036319 1.209524
-0.318427 -0.036381 1.211599
-0.316340 -0.036470 1.214530
-0.314148 -0.036547 1.217108
-0.312008 -0.036632 1.219933
-0.310106 -0.036747 1.223755
-0.308077 -0.036848 1.227137
-0.306502 -0.037007 1.232415
-0.305092 -0.037188 1.238456
-0.303830 -0.037391 1.245227
-0.303018 -0.037654 1.253989
-0.304098 -0.038160 1.270829
-0.305147 -0.038672 1.287873
-0.304280 -0.038949 1.297095
-0.302250 -0.039081 1.301493
-0.300598 -0.039265 1.307622
-0.321417 -0.042418 1.412643
-0.275984 -0.036803 1.225636
-0.199137 -0.026836 0.893696
-0.191491 -0.026081 0.868554
-0.188539 -0.025956 0.864387
-0.185959 -0.025879 0.861851
-0.183626 -0.025836 0.860419
-0.181007 -0.025752 0.857602
-0.178370 -0.025663 0.854636
-0.176093 -0.025624 0.853343
-0.173812 -0.025584 0.852004
-0.171741 -0.025574 0.851672
-0.169482 -0.025535 0.850389
-0.167556 -0.025546 0.850765
-0.165307 -0.025508 0.849494
-0.163379 -0.025519 0.849861
-0.161449 -0.025530 0.850223
-0.159516 -0.025541 0.850582
-0.157470 -0.025534 0.850341
-0.155342 -0.025513 0.849643
-0.153406 -0.025523 0.849989
-0.151350 -0.025514 0.849675
-0.149237 -0.025494 0.849024
-0.147180 -0.025484 0.848677
-0.145072 -0.025464 0.848027
-0.143125 -0.025473 0.848311
-0.141090 -0.025466 0.848074
-0.139147 -0.025475 0.848390
-0.137201 -0.025484 0.848701
-0.135232 -0.025490 0.848874
-0.133142 -0.025472 0.848279
-0.131192 -0.025481 0.848576
-0.129148 -0.025471 0.848258
-0.127167 -0.025474 0.848359
-0.125089 -0.025457 0.847800
-0.123116 -0.025462 0.847948
-0.121092 -0.025456 0.847744
-0.118991 -0.025433 0.846981
-0.117014 -0.025436 0.847096
-0.114995 -0.025430 0.846902
-0.113000 -0.025430 0.846879
-0.110942 -0.025415 0.846378
-0.108905 -0.025404 0.846020
-0.106946 -0.025411 0.846268
-0.104985 -0.025419 0.846508
-0.102896 -0.025395 0.845706
-0.100934 -0.025402 0.845938
-0.098971 -0.025408 0.846167
-0.097006 -0.025415 0.846391
-0.095040 -0.025422 0.846611
-0.093072 -0.025428 0.846826
-0.091102 -0.025435 0.847037
-0.089131 -0.025441 0.847243
-0.087159 -0.025447 0.847445
-0.085186 -0.025453 0.847645
-0.083182 -0.025450 0.847550
-0.081175 -0.025446 0.847414
-0.079199 -0.025451 0.847595
-0.077221 -0.025457 0.847776
-0.075242 -0.025462 0.847948
-0.073262 -0.025467 0.848119
-0.071281 -0.025472 0.848284
-0.069326 -0.025487 0.848783
-0.067364 -0.025500 0.849212
-0.065377 -0.025504 0.849363
-0.063390 -0.025509 0.849509
-0.061402 -0.025513 0.849651
-0.059413 -0.025517 0.849788
-0.057494 -0.025553 0.850969
-0.055500 -0.025556 0.851097
-0.053506 -0.025560 0.851221
-0.051511 -0.025564 0.851339
-0.049514 -0.025567 0.851453
-0.047518 -0.025570 0.851562
-0.045520 -0.025574 0.851667
-0.043553 -0.025595 0.852380
-0.041552 -0.025598 0.852476
-0.039551 -0.025601 0.852566
-0.037584 -0.025627 0.853444
-0.035591 -0.025637 0.853784
-0.033585 -0.025639 0.853861
-0.031579 -0.025642 0.853932
-0.029543 -0.025618 0.853154
-0.027532 -0.025614 0.853009
-0.025527 -0.025616 0.853066
-0.023505 -0.025599 0.852504
-0.021500 -0.025600 0.852552
-0.019472 -0.025570 0.851544
-0.017469 -0.025571 0.851583
-0.015467 -0.025572 0.851616
-0.013464 -0.025573 0.851644
-0.011460 -0.025574 0.851668
-0.009457 -0.025574 0.851687
-0.007462 -0.025604 0.852690
-0.005461 -0.025625 0.853376
-0.003453 -0.025625 0.853381
-0.001446 -0.025625 0.853381
0.000562 -0.025625 0.853376
0.002569 -0.025625 0.853367
0.004577 -0.025624 0.853362
0.006597 -0.025674 0.855001
0.008608 -0.025673 0.854977
0.010619 -0.025673 0.854981
0.012654 -0.025721 0.856587
0.014681 -0.025741 0.857249
0.016727 -0.025788 0.858799
0.018787 -0.025842 0.860603
0.020865 -0.025908 0.862804
0.022965 -0.025988 0.865455
0.025052 -0.026041 0.867242
0.027164 -0.026110 0.869518
0.029318 -0.026207 0.872765
0.031473 -0.026292 0.875596
0.033654 -0.026387 0.878755
0.035823 -0.026462 0.881249
0.038041 -0.026563 0.884626
0.040275 -0.026665 0.888011
0.042586 -0.026804 0.892656
0.044881 -0.026921 0.896553
0.047219 -0.027052 0.900914
0.049623 -0.027209 0.906123
0.052065 -0.027372 0.911550
0.054629 -0.027584 0.918611
0.057153 -0.027760 0.924488
0.059832 -0.027996 0.932336
0.062866 -0.028375 0.944973
0.068875 -0.030026 0.999936
0.096760 -0.040789 1.358386
0.099696 -0.040683 1.354866
0.103483 -0.040920 1.362756
0.106933 -0.041014 1.365874
0.110432 -0.041121 1.369429
0.113885 -0.041204 1.372214
0.117360 -0.041291 1.375111
0.120807 -0.041364 1.377526
0.124269 -0.041438 1.379983
0.127780 -0.041524 1.382845
0.131389 -0.041636 1.386604
0.134975 -0.041737 1.389942
0.138526 -0.041822 1.392770
0.142047 -0.041894 1.395170
0.145579 -0.041966 1.397567
0.149121 -0.042037 1.399956
0.152675 -0.042109 1.402351
0.156110 -0.042146 1.403575
0.159658 -0.042211 1.405747
0.163240 -0.042283 1.408119
0.166774 -0.042339 1.409988
0.170271 -0.042384 1.411486
0.173688 -0.042407 1.412268
0.177132 -0.042436 1.413240
0.180579 -0.042465 1.414197
0.183983 -0.042483 1.414794
0.187401 -0.042503 1.415469
0.190707 -0.042498 1.415293
0.194059 -0.042503 1.415458
0.197428 -0.042511 1.415740
0.200746 -0.042509 1.415651
0.204152 -0.042524 1.416175
0.207568 -0.042542 1.416752
0.210873 -0.042536 1.416567
0.214296 -0.042554 1.417165
0.217596 -0.042548 1.416945
0.220739 -0.042511 1.415723
0.223958 -0.042490 1.415022
0.227203 -0.042474 1.414497
0.230443 -0.042458 1.413961
0.233676 -0.042441 1.413399
0.236909 -0.042425 1.412852
0.240062 -0.042394 1.411845
0.242912 -0.042312 1.409116
0.245881 -0.042253 1.407131
0.249069 -0.042232 1.406443
0.252027 -0.042174 1.404491
0.255225 -0.042156 1.403906
0.258660 -0.042178 1.404627
0.261858 -0.042161 1.404058
0.264952 -0.042127 1.402950
0.267872 -0.042068 1.400962
0.270612 -0.041981 1.398087
0.273675 -0.041947 1.396935
0.276564 -0.041887 1.394931
0.279532 -0.041840 1.393368
0.282382 -0.041776 1.391261
0.284358 -0.041587 1.384945
0.286837 -0.041474 1.381193
0.296623 -0.042409 1.412317
0.236989 -0.033507 1.115883
0.236050 -0.033009 1.099284
0.236585 -0.032725 1.089836
0.237778 -0.032538 1.083592
0.238919 -0.032347 1.077242
0.240150 -0.032172 1.071428
0.241596 -0.032030 1.066683
0.243017 -0.031887 1.061930
0.244513 -0.031757 1.057592
0.245937 -0.031620 1.053040
0.247444 -0.031497 1.048923
0.249043 -0.031387 1.045278
0.250511 -0.031264 1.041161
0.252172 -0.031166 1.037916
0.253970 -0.031087 1.035291
0.255759 -0.031009 1.032681
0.257348 -0.030908 1.029320
0.259190 -0.030839 1.027027
0.261054 -0.030774 1.024858
0.262806 -0.030697 1.022294
0.264565 -0.030622 1.019806
0.266339 -0.030551 1.017419
0.268057 -0.030474 1.014861
0.269707 -0.030391 1.012096
0.271167 -0.030288 1.008668
0.272746 -0.030200 1.005739
0.274613 -0.030145 1.003916
0.276629 -0.030108 1.002664
0.278633 -0.030069 1.001391
0.281002 -0.030071 1.001436
0.283294 -0.030064 1.001212
0.285515 -0.030050 1.000739
0.287971 -0.030061 1.001096
0.290194 -0.030047 1.000639
0.292638 -0.030056 1.000948
0.294987 -0.030056 1.000927
0.297149 -0.030036 1.000280
0.299129 -0.029999 0.999035
0.301169 -0.029968 0.998007
0.303308 -0.029947 0.997319
0.305630 -0.029945 0.997239
0.308012 -0.029948 0.997357
0.310323 -0.029945 0.997245
0.312463 -0.029925 0.996586
0.314666 -0.029912 0.996141
0.317226 -0.029932 0.996821
0.319788 -0.029953 0.997498
0.322403 -0.029977 0.998328
0.325178 -0.030017 0.999640
0.327845 -0.030046 1.000601
0.330196 -0.030046 1.000594
0.332759 -0.030064 1.001222
0.336522 -0.030191 1.005429
0.341068 -0.030385 1.011900
0.344847 -0.030509 1.016018
0.349348 -0.030694 1.022195
0.354454 -0.030930 1.030045
0.359445 -0.031152 1.037459
0.364603 -0.031386 1.045249
0.372353 -0.031839 1.060315
0.379969 -0.032274 1.074802
0.386913 -0.032646 1.087211
0.393351 -0.032972 1.098042
0.396166 -0.032991 1.098685
0.399622 -0.033063 1.101085
0.403251 -0.033148 1.103930
0.405091 -0.033087 1.101872
0.406814 -0.033016 1.099523
0.408788 -0.032967 1.097876
0.411224 -0.032955 1.097486
0.414932 -0.033045 1.100471
-0.478262 -0.035371 1.280899
-0.476099 -0.035434 1.283189
-0.473266 -0.035448 1.283692
-0.468749 -0.035335 1.279607
-0.465017 -0.035280 1.277623
-0.461067 -0.035208 1.275012
-0.458215 -0.035220 1.275422
-0.454803 -0.035188 1.274267
-0.451064 -0.035130 1.272177
-0.447515 -0.035086 1.270598
-0.441566 -0.034853 1.262138
-0.421896 -0.033526 1.214078
-0.416363 -0.033312 1.206322
-0.412208 -0.033205 1.202480
-0.408192 -0.033109 1.198992
-0.404416 -0.033031 1.196165
-0.400821 -0.032967 1.193839
-0.397528 -0.032927 1.192386
-0.394489 -0.032907 1.191678
-0.391173 -0.032864 1.190119
-0.387925 -0.032826 1.188745
-0.384992 -0.032815 1.188325
-0.381796 -0.032780 1.187079
-0.378903 -0.032771 1.186764
-0.376258 -0.032784 1.187228
-0.373455 -0.032783 1.187197
-0.370560 -0.032774 1.186867
-0.367998 -0.032795 1.187609
-0.365330 -0.032806 1.188020
-0.362555 -0.032808 1.188084
-0.359629 -0.032796 1.187652
-0.357077 -0.032818 1.188456
-0.354510 -0.032839 1.189224
-0.351933 -0.032860 1.189971
-0.349366 -0.032882 1.190761
-0.346881 -0.032912 1.191847
-0.344529 -0.032955 1.193412
-0.341944 -0.032976 1.194188
-0.339331 -0.032996 1.194882
-0.337065 -0.033049 1.196816
-0.334627 -0.033086 1.198166
-0.332158 -0.033121 1.199429
-0.329865 -0.033174 1.201354
-0.327404 -0.033211 1.202697
-0.325180 -0.033273 1.204940
-0.322907 -0.033331 1.207038
-0.320627 -0.033390 1.209146
-0.318398 -0.033454 1.211490
-0.316236 -0.033527 1.214132
-0.313979 -0.033591 1.216452
-0.311913 -0.033677 1.219563
-0.309822 -0.033762 1.222631
-0.307918 -0.033869 1.226503
-0.306214 -0.034000 1.231255
-0.304809 -0.034167 1.237309
-0.303549 -0.034354 1.244074
-0.302547 -0.034574 1.252037
-0.302785 -0.034941 1.265340
-0.303295 -0.035348 1.280057
-0.301608 -0.035504 1.285704
-0.300355 -0.035714 1.293330
-0.329814 -0.039618 1.434715
-0.255782 -0.031043 1.124174
-0.196609 -0.024111 0.873135
-0.192729 -0.023884 0.864937
-0.189993 -0.023797 0.861759
-0.187535 -0.023742 0.859784
-0.185000 -0.023677 0.857406
-0.182588 -0.023625 0.855558
-0.180256 -0.023584 0.854045
-0.177877 -0.023535 0.852270
-0.175608 -0.023499 0.850994
-0.173677 -0.023509 0.851337
-0.171416 -0.023474 0.850060
-0.169492 -0.023484 0.850439
-0.167566 -0.023495 0.850815
-0.165640 -0.023505 0.851205
-0.163598 -0.023500 0.850998
-0.161665 -0.023510 0.851361
-0.159729 -0.023520 0.851720
-0.157593 -0.023500 0.851005
-0.155655 -0.023509 0.851355
-0.153611 -0.023503 0.851126
-0.151476 -0.023483 0.850380
-0.149532 -0.023491 0.850704
-0.147306 -0.023456 0.849408
-0.145357 -0.023463 0.849691
-0.143326 -0.023458 0.849502
-0.141381 -0.023467 0.849821
-0.139413 -0.023472 0.850013
-0.137308 -0.023454 0.849363
-0.135361 -0.023463 0.849683
-0.133410 -0.023472 0.849988
-0.131442 -0.023477 0.850191
-0.129414 -0.023472 0.850006
-0.127459 -0.023481 0.850307
-0.125341 -0.023458 0.849508
-0.123366 -0.023463 0.849665
-0.121342 -0.023458 0.849491
-0.119231 -0.023436 0.848688
-0.117252 -0.023439 0.848813
-0.115232 -0.023435 0.848648
-0.113127 -0.023412 0.847831
-0.111166 -0.023419 0.848084
-0.109181 -0.023421 0.848163
-0.107167 -0.023417 0.848013
-0.105067 -0.023394 0.847169
-0.103103 -0.023400 0.847410
-0.101138 -0.023407 0.847643
-0.099171 -0.023413 0.847873
-0.097177 -0.023413 0.847880
-0.095167 -0.023410 0.847745
-0.093234 -0.023425 0.848302
-0.091224 -0.023422 0.848172
-0.089251 -0.023427 0.848378
-0.087276 -0.023433 0.848580
-0.085300 -0.023438 0.848780
-0.083272 -0.023430 0.848465
-0.081239 -0.023419 0.848076
-0.079261 -0.023424 0.848257
-0.077282 -0.023429 0.848438
-0.075301 -0.023434 0.848610
-0.073369 -0.023454 0.849356
-0.071428 -0.023473 0.850033
-0.069442 -0.023477 0.850194
-0.067499 -0.023498 0.850924
-0.065491 -0.023495 0.850833
-0.063518 -0.023506 0.851222
-0.061526 -0.023510 0.851364
-0.059609 -0.023544 0.852591
-0.057612 -0.023547 0.852723
-0.055615 -0.023551 0.852852
-0.053616 -0.023554 0.852976
-0.051617 -0.023557 0.853095
-0.049617 -0.023561 0.853209
-0.047616 -0.023564 0.853318
-0.045635 -0.023578 0.853828
-0.043641 -0.023585 0.854099
-0.041636 -0.023588 0.854194
-0.039631 -0.023590 0.854285
-0.037625 -0.023593 0.854371
-0.035619 -0.023595 0.854452
-0.033611 -0.023597 0.854528
-0.031604 -0.023599 0.854600
-0.029596 -0.023601 0.854667
-0.027572 -0.023590 0.854259
-0.025561 -0.023588 0.854210
-0.023523 -0.023560 0.853171
-0.021517 -0.023561 0.853218
-0.019511 -0.023562 0.853261
-0.017494 -0.023549 0.852794
-0.015487 -0.023548 0.852757
-0.013482 -0.023549 0.852786
-0.011476 -0.023550 0.852810
-0.009476 -0.023565 0.853363
-0.007469 -0.023566 0.853419
-0.005461 -0.023567 0.853428
-0.003454 -0.023567 0.853433
-0.001446 -0.023567 0.853433
0.000562 -0.023567 0.853428
0.002569 -0.023567 0.853422
0.004583 -0.023596 0.854505
0.006597 -0.023612 0.855054
0.008608 -0.023611 0.855030
0.010619 -0.023610 0.855001
0.012631 -0.023610 0.855005
0.014670 -0.023654 0.856601
0.016685 -0.023655 0.856610
0.018714 -0.023673 0.857261
0.020771 -0.023718 0.858905
0.022835 -0.023763 0.860547
0.024921 -0.023822 0.862689
0.027033 -0.023896 0.865347
0.029146 -0.023959 0.867646
0.031290 -0.024038 0.870494
0.033423 -0.024100 0.872725
0.035612 -0.024192 0.876074
0.037817 -0.024285 0.879431
0.040039 -0.024378 0.882796
0.042276 -0.024471 0.886168
0.044530 -0.024564 0.889549
0.046892 -0.024706 0.894683
0.049183 -0.024800 0.898087
0.051602 -0.024948 0.903439
0.054036 -0.025091 0.908646
0.056559 -0.025263 0.914867
0.059165 -0.025459 0.921943
0.061891 -0.025690 0.930319
0.064943 -0.026036 0.942852
0.077429 -0.030017 1.087012
0.100831 -0.037839 1.370280
0.102557 -0.037295 1.350562
0.106075 -0.037415 1.354917
0.109599 -0.037530 1.359091
0.113148 -0.037647 1.363334
0.116560 -0.037714 1.365732
0.120082 -0.037811 1.369258
0.123515 -0.037876 1.371617
0.126986 -0.037949 1.374259
0.130551 -0.038046 1.377757
0.134047 -0.038118 1.380384
0.137531 -0.038184 1.382771
0.141049 -0.038256 1.385374
0.144533 -0.038316 1.387533
0.147956 -0.038357 1.389018
0.151482 -0.038422 1.391394
0.154866 -0.038450 1.392397
0.158411 -0.038515 1.394763
0.161965 -0.038580 1.397117
0.165531 -0.038645 1.399477
0.169106 -0.038710 1.401824
0.172634 -0.038762 1.403695
0.176230 -0.038827 1.406044
0.179620 -0.038845 1.406690
0.183052 -0.038871 1.407633
0.186407 -0.038880 1.407963
0.189826 -0.038902 1.408754
0.193220 -0.038918 1.409339
0.196518 -0.038914 1.409210
0.199913 -0.038930 1.409775
0.203327 -0.038948 1.410451
0.206677 -0.038954 1.410671
0.210054 -0.038965 1.411064
0.213299 -0.038952 1.410570
0.216539 -0.038938 1.410063
0.219777 -0.038924 1.409554
0.223008 -0.038909 1.409016
0.226238 -0.038894 1.408494
0.229318 -0.038855 1.407061
0.232536 -0.038839 1.406501
0.235683 -0.038813 1.405540
0.238814 -0.038784 1.404509
0.241645 -0.038709 1.401765
0.244518 -0.038641 1.399331
0.247612 -0.038610 1.398213
0.250552 -0.038557 1.396272
0.253731 -0.038541 1.395691
0.256985 -0.038536 1.395529
0.260160 -0.038520 1.394951
0.263328 -0.038504 1.394349
0.266231 -0.038449 1.392379
0.269025 -0.038381 1.389892
0.271732 -0.038301 1.387018
0.274608 -0.038247 1.385064
0.277718 -0.038227 1.384330
0.280276 -0.038132 1.380887
0.282238 -0.037959 1.374618
0.285243 -0.037929 1.373519
0.293285 -0.038561 1.396424
0.237315 -0.030857 1.117418
0.236224 -0.030378 1.100098
0.236525 -0.030087 1.089562
0.237560 -0.029895 1.082597
0.238681 -0.029717 1.076168
0.240050 -0.029574 1.070983
0.241287 -0.029418 1.065319
0.242707 -0.029287 1.060572
0.244021 -0.029146 1.055464
0.245343 -0.029009 1.050495
0.246828 -0.028893 1.046314
0.248321 -0.028781 1.042250
0.249759 -0.028664 1.038035
0.251217 -0.028553 1.033985
0.252891 -0.028467 1.030895
0.254537 -0.028380 1.027750
0.256140 -0.028290 1.024489
0.257759 -0.028204 1.021356
0.259272 -0.028107 1.017864
0.261012 -0.028037 1.015318
0.262782 -0.027971 1.012931
0.264426 -0.027893 1.010111
0.266065 -0.027816 1.007320
0.267740 -0.027744 1.004714
0.269148 -0.027646 1.001157
0.270617 -0.027556 0.997891
0.272349 -0.027494 0.995640
0.274374 -0.027462 0.994492
0.276276 -0.027419 0.992919
0.278432 -0.027401 0.992279
0.280514 -0.027376 0.991388
0.282570 -0.027350 0.990417
0.284771 -0.027337 0.989972
0.287063 -0.027334 0.989842
0.289285 -0.027324 0.989479
0.291526 -0.027316 0.989186
0.293663 -0.027298 0.988546
0.295787 -0.027279 0.987873
0.297737 -0.027245 0.986634
0.299851 -0.027226 0.985953
0.302079 -0.027218 0.985655
0.304506 -0.027228 0.986005
0.306683 -0.027215 0.985546
0.308865 -0.027203 0.985112
0.310970 -0.027184 0.984440
0.313097 -0.027168 0.983847
0.315508 -0.027176 0.984147
0.317708 -0.027167 0.983790
0.319925 -0.027158 0.983490
0.321998 -0.027138 0.982758
0.323755 -0.027092 0.981075
0.325821 -0.027071 0.980348
0.327907 -0.027053 0.979690
0.329866 -0.027025 0.978665
0.332352 -0.027040 0.979204
0.334636 -0.027038 0.979148
0.337128 -0.027053 0.979696
0.339551 -0.027063 0.980039
0.341675 -0.027049 0.979519
0.343948 -0.027046 0.979429
0.347379 -0.027134 0.982615
0.352681 -0.027366 0.991019
0.358785 -0.027657 1.001552
0.363531 -0.027840 1.008179
0.369180 -0.028089 1.017209
0.381420 -0.028834 1.044167
0.390270 -0.029314 1.061558
0.399372 -0.029807 1.079408
0.402917 -0.029882 1.082109
0.396154 -0.029195 1.057266
0.402285 -0.029462 1.066932
-0.475298 -0.032079 1.272960
-0.473150 -0.032137 1.275241
-0.470815 -0.032182 1.277046
-0.466772 -0.032111 1.274208
-0.463083 -0.032063 1.272310
-0.459691 -0.032035 1.271205
-0.456440 -0.032017 1.270481
-0.453045 -0.031988 1.269342
-0.449488 -0.031948 1.267733
-0.446217 -0.031927 1.266914
-0.438938 -0.031617 1.254627
-0.420333 -0.030482 1.209580
-0.415977 -0.030372 1.205203
-0.411848 -0.030277 1.201429
-0.407852 -0.030190 1.197994
-0.404144 -0.030124 1.195361
-0.400733 -0.030079 1.193577
-0.397413 -0.030040 1.192042
-0.394123 -0.030003 1.190574
-0.390840 -0.029966 1.189107
-0.387911 -0.029956 1.188703
-0.384668 -0.029921 1.187323
-0.381711 -0.029908 1.186816
-0.378922 -0.029909 1.186824
-0.376021 -0.029900 1.186479
-0.373396 -0.029913 1.187008
-0.370578 -0.029911 1.186926
-0.367933 -0.029923 1.187402
-0.365118 -0.029921 1.187329
-0.362573 -0.029942 1.188143
-0.359866 -0.029949 1.188434
-0.357095 -0.029951 1.188516
-0.354528 -0.029971 1.189284
-0.351951 -0.029990 1.190031
-0.349384 -0.030009 1.190821
-0.346950 -0.030041 1.192085
-0.344546 -0.030076 1.193473
-0.341961 -0.030096 1.194249
-0.339625 -0.030138 1.195914
-0.337082 -0.030162 1.196877
-0.334754 -0.030206 1.198622
-0.332288 -0.030238 1.199900
-0.329882 -0.030276 1.201416
-0.327568 -0.030324 1.203298
-0.325246 -0.030371 1.205184
-0.322924 -0.030420 1.207101
-0.320581 -0.030467 1.208972
-0.318415 -0.030532 1.211552
-0.316188 -0.030592 1.213947
-0.313995 -0.030657 1.216515
-0.311738 -0.030716 1.218878
-0.309633 -0.030792 1.221885
-0.307737 -0.030891 1.225785
-0.305992 -0.031006 1.230361
-0.304388 -0.031138 1.235602
-0.303098 -0.031305 1.242226
-0.302024 -0.031498 1.249876
-0.301369 -0.031738 1.259426
-0.301610 -0.032079 1.272945
-0.301645 -0.032405 1.285862
-0.324036 -0.035162 1.395302
-0.238147 -0.026107 1.035959
-0.197755 -0.021903 0.869143
-0.194546 -0.021773 0.863973
-0.191424 -0.021649 0.859084
-0.189102 -0.021615 0.857718
-0.186763 -0.021578 0.856244
-0.184155 -0.021509 0.853492
-0.181878 -0.021477 0.852228
-0.179587 -0.021443 0.850873
-0.177538 -0.021437 0.850647
-0.175605 -0.021445 0.850976
-0.173357 -0.021415 0.849773
-0.171425 -0.021423 0.850105
-0.169501 -0.021433 0.850484
-0.167574 -0.021442 0.850861
-0.165649 -0.021452 0.851250
-0.163717 -0.021461 0.851618
-0.161782 -0.021470 0.851981
-0.159846 -0.021479 0.852340
-0.157910 -0.021489 0.852714
-0.155867 -0.021484 0.852511
-0.153723 -0.021465 0.851746
-0.151484 -0.021431 0.850426
-0.149546 -0.021440 0.850780
-0.147602 -0.021449 0.851114
-0.145565 -0.021443 0.850907
-0.143603 -0.021449 0.851145
-0.141484 -0.021432 0.850440
-0.139535 -0.021440 0.850758
-0.137584 -0.021447 0.851069
-0.135621 -0.021454 0.851315
-0.133594 -0.021450 0.851160
-0.131638 -0.021457 0.851458
-0.129680 -0.021465 0.851752
-0.127689 -0.021467 0.851840
-0.125593 -0.021451 0.851215
-0.123615 -0.021455 0.851381
-0.121431 -0.021423 0.850111
-0.119470 -0.021430 0.850393
-0.117489 -0.021434 0.850529
-0.115429 -0.021423 0.850093
-0.113354 -0.021409 0.849535
-0.111319 -0.021402 0.849254
-0.109354 -0.021408 0.849507
-0.107245 -0.021386 0.848631
-0.105278 -0.021392 0.848871
-0.103311 -0.021398 0.849113
-0.101277 -0.021391 0.848812
-0.099307 -0.021396 0.849043
-0.097336 -0.021402 0.849267
-0.095363 -0.021408 0.849488
-0.093388 -0.021413 0.849703
-0.091362 -0.021407 0.849448
-0.089316 -0.021395 0.848997
-0.087340 -0.021400 0.849199
-0.085362 -0.021405 0.849399
-0.083382 -0.021410 0.849590
-0.081402 -0.021415 0.849781
-0.079420 -0.021420 0.849962
-0.077437 -0.021424 0.850144
-0.075452 -0.021428 0.850316
-0.073467 -0.021433 0.850488
-0.071480 -0.021437 0.850654
-0.069543 -0.021457 0.851438
-0.067593 -0.021473 0.852098
-0.065624 -0.021485 0.852559
-0.063646 -0.021494 0.852933
-0.061650 -0.021498 0.853075
-0.059652 -0.021501 0.853213
-0.057654 -0.021505 0.853346
-0.055729 -0.021537 0.854605
-0.053726 -0.021540 0.854730
-0.051723 -0.021543 0.854849
-0.049719 -0.021546 0.854963
-0.047713 -0.021548 0.855073
-0.045728 -0.021561 0.855556
-0.043728 -0.021567 0.855816
-0.041720 -0.021569 0.855911
-0.039711 -0.021572 0.856002
-0.037701 -0.021574 0.856088
-0.035690 -0.021576 0.856170
-0.033679 -0.021578 0.856246
-0.031667 -0.021580 0.856318
-0.029640 -0.021571 0.855952
-0.027625 -0.021569 0.855909
-0.025580 -0.021542 0.854833
-0.023570 -0.021544 0.854886
-0.021549 -0.021533 0.854475
-0.019512 -0.021504 0.853308
-0.017505 -0.021505 0.853347
-0.015499 -0.021506 0.853380
-0.013491 -0.021506 0.853409
-0.011484 -0.021507 0.853433
-0.009477 -0.021507 0.853452
-0.007469 -0.021508 0.853466
-0.005462 -0.021508 0.853475
-0.003454 -0.021508 0.853480
-0.001449 -0.021550 0.855137
0.000563 -0.021550 0.855144
0.002574 -0.021550 0.855134
0.004586 -0.021550 0.855120
0.006598 -0.021549 0.855101
0.008609 -0.021548 0.855077
0.010620 -0.021548 0.855048
0.012631 -0.021547 0.855015
0.014670 -0.021588 0.856648
0.016685 -0.021587 0.856604
0.018699 -0.021586 0.856556
0.020729 -0.021601 0.857175
0.022772 -0.021627 0.858190
0.024838 -0.021668 0.859812
0.026925 -0.021720 0.861892
0.029017 -0.021768 0.863784
0.031123 -0.021820 0.865865
0.033270 -0.021893 0.868742
0.035440 -0.021971 0.871842
0.037595 -0.022032 0.874261
0.039803 -0.022116 0.877606
0.042028 -0.022201 0.880958
0.044312 -0.022307 0.885193
0.046525 -0.022370 0.887688
0.048825 -0.022468 0.891550
0.051188 -0.022585 0.896198
0.053603 -0.022715 0.901356
0.056078 -0.022859 0.907100
0.058573 -0.023001 0.912719
0.061149 -0.023164 0.919166
0.063940 -0.023394 0.928299
0.067135 -0.023751 0.942489
0.085776 -0.029376 1.165684
0.102514 -0.034021 1.350006
0.105004 -0.033800 1.341242
0.108813 -0.034005 1.349352
0.112408 -0.034132 1.354411
0.115911 -0.034226 1.358130
0.119433 -0.034320 1.361856
0.122896 -0.034392 1.364733
0.126345 -0.034457 1.367321
0.129808 -0.034523 1.369924
0.133306 -0.034594 1.372751
0.136726 -0.034643 1.374673
0.140201 -0.034702 1.377041
0.143611 -0.034744 1.378679
0.147039 -0.034787 1.380416
0.150417 -0.034818 1.381617
0.153849 -0.034859 1.383245
0.157276 -0.034897 1.384773
0.160805 -0.034956 1.387110
0.164345 -0.035015 1.389453
0.167947 -0.035085 1.392221
0.171509 -0.035144 1.394552
0.175046 -0.035195 1.396597
0.178530 -0.035234 1.398151
0.182022 -0.035274 1.399710
0.185478 -0.035305 1.400948
0.188863 -0.035321 1.401606
0.192153 -0.035320 1.401558
0.195559 -0.035340 1.402335
0.198941 -0.035354 1.402919
0.202385 -0.035380 1.403918
0.205771 -0.035394 1.404490
0.209084 -0.035395 1.404547
0.212469 -0.035409 1.405082
0.215697 -0.035396 1.404577
0.218804 -0.035364 1.403313
0.221935 -0.035337 1.402240
0.224953 -0.035293 1.400494
0.228069 -0.035266 1.399397
0.230766 -0.035175 1.395800
0.233553 -0.035100 1.392838
0.236052 -0.034985 1.388265
0.238525 -0.034869 1.383667
0.241022 -0.034760 1.379328
0.243909 -0.034709 1.377308
0.246974 -0.034684 1.376329
0.250103 -0.034669 1.375731
0.253150 -0.034643 1.374702
0.256518 -0.034661 1.375423
0.259645 -0.034647 1.374849
0.262508 -0.034598 1.372907
0.265531 -0.034571 1.371837
0.268730 -0.034568 1.371697
0.271831 -0.034552 1.371060
0.274660 -0.034502 1.369084
0.277458 -0.034449 1.367002
0.279409 -0.034294 1.360841
0.283265 -0.034373 1.363994
0.293047 -0.035162 1.395290
0.237461 -0.028177 1.118106
0.236463 -0.027751 1.101208
0.236672 -0.027475 1.090239
0.237706 -0.027299 1.083261
0.238758 -0.027129 1.076516
0.239856 -0.026968 1.070115
0.241064 -0.026822 1.064335
0.242483 -0.026702 1.059593
0.243852 -0.026580 1.054733
0.245111 -0.026448 1.049501
0.246512 -0.026334 1.044976
0.247864 -0.026217 1.040332
0.249396 -0.026121 1.036526
0.250710 -0.026005 1.031901
0.252271 -0.025916 1.028368
0.253825 -0.025827 1.024873
0.255310 -0.025734 1.021169
0.256812 -0.025644 1.017602
0.258400 -0.025565 1.014440
0.260020 -0.025489 1.011457
0.261614 -0.025413 1.008430
0.263210 -0.025338 1.005467
0.264679 -0.025253 1.002071
0.266311 -0.025184 0.999351
0.267557 -0.025081 0.995241
0.269209 -0.025017 0.992700
0.270926 -0.024960 0.990438
0.272734 -0.024912 0.988546
0.274661 -0.024876 0.987116
0.276483 -0.024831 0.985330
0.278501 -0.024804 0.984272
0.280450 -0.024772 0.982987
0.282489 -0.024748 0.982038
0.284529 -0.024724 0.981104
0.286407 -0.024687 0.979634
0.288381 -0.024659 0.978512
0.290409 -0.024636 0.977590
0.292509 -0.024619 0.976924
0.294338 -0.024580 0.975368
0.296427 -0.024563 0.974695
0.298768 -0.024567 0.974852
0.300909 -0.024554 0.974356
0.302988 -0.024537 0.973672
0.304945 -0.024510 0.972608
0.306951 -0.024488 0.971717
0.309082 -0.024476 0.971229
0.311190 -0.024462 0.970677
0.313108 -0.024433 0.969545
0.314997 -0.024403 0.968342
0.316840 -0.024369 0.967015
0.318639 -0.024333 0.965573
0.320357 -0.024291 0.963908
0.322356 -0.024271 0.963104
0.324251 -0.024243 0.962004
0.326267 -0.024225 0.961277
0.328434 -0.024218 0.961000
0.330706 -0.024219 0.961033
0.332797 -0.024206 0.960543
0.334798 -0.024188 0.959804
0.336795 -0.024169 0.959061
0.338814 -0.024152 0.958389
0.340694 -0.024125 0.957337
0.342499 -0.024094 0.956089
0.344345 -0.024066 0.954971
0.345879 -0.024016 0.953006
0.347741 -0.023990 0.951966
0.349801 -0.023978 0.951478
0.352231 -0.023991 0.951996
0.355113 -0.024034 0.953723
0.359015 -0.024146 0.958149
0.362510 -0.024229 0.961439
-0.472970 -0.028865 1.266726
-0.471151 -0.028936 1.269853
-0.468521 -0.028958 1.270823
-0.464951 -0.028922 1.269237
-0.461422 -0.028888 1.267747
-0.457927 -0.028856 1.266327
-0.454791 -0.028846 1.265892
-0.451706 -0.028839 1.265592
-0.448172 -0.028803 1.264022
-0.444148 -0.028735 1.261038
-0.434729 -0.028315 1.242594
-0.419874 -0.027533 1.208259
-0.415608 -0.027439 1.204134
-0.411563 -0.027358 1.200597
-0.407415 -0.027270 1.196709
-0.403782 -0.027214 1.194291
-0.400359 -0.027173 1.192465
-0.397068 -0.027140 1.191006
-0.393871 -0.027112 1.189812
-0.390828 -0.027095 1.189070
-0.387578 -0.027064 1.187683
-0.384459 -0.027041 1.186680
-0.381540 -0.027032 1.186282
-0.378648 -0.027025 1.185964
-0.376038 -0.027038 1.186532
-0.373201 -0.027034 1.186387
-0.370595 -0.027048 1.186980
-0.367673 -0.027038 1.186563
-0.365134 -0.027057 1.187383
-0.362589 -0.027076 1.188197
-0.359975 -0.027089 1.188795
-0.357111 -0.027084 1.188570
-0.354544 -0.027102 1.189338
-0.351967 -0.027119 1.190085
-0.349399 -0.027137 1.190875
-0.347099 -0.027176 1.192595
-0.344562 -0.027197 1.193527
-0.342132 -0.027227 1.194847
-0.339696 -0.027257 1.196165
-0.337211 -0.027284 1.197334
-0.334822 -0.027319 1.198864
-0.332515 -0.027361 1.200718
-0.330016 -0.027388 1.201905
-0.327583 -0.027421 1.203353
-0.325261 -0.027464 1.205239
-0.322843 -0.027499 1.206797
-0.320595 -0.027550 1.209028
-0.318246 -0.027593 1.210909
-0.316080 -0.027653 1.213533
-0.313738 -0.027698 1.215520
-0.311505 -0.027754 1.217968
-0.309549 -0.027836 1.221557
-0.307451 -0.027906 1.224645
-0.305633 -0.028003 1.228917
-0.304010 -0.028121 1.234065
-0.302811 -0.028280 1.241052
-0.301057 -0.028390 1.245873
-0.299799 -0.028549 1.252864
-0.304638 -0.029298 1.285727
-0.325013 -0.031571 1.385474
-0.219292 -0.021517 0.944272
-0.199560 -0.019781 0.868100
-0.196429 -0.019672 0.863317
-0.193354 -0.019567 0.858680
-0.191005 -0.019533 0.857203
-0.188365 -0.019469 0.854375
-0.186015 -0.019433 0.852814
-0.183739 -0.019405 0.851562
-0.181507 -0.019380 0.850494
-0.179450 -0.019374 0.850226
-0.177533 -0.019383 0.850622
-0.175308 -0.019358 0.849538
-0.173355 -0.019364 0.849761
-0.171433 -0.019372 0.850145
-0.169509 -0.019381 0.850524
-0.167582 -0.019390 0.850901
-0.165657 -0.019398 0.851291
-0.163725 -0.019407 0.851658
-0.161790 -0.019415 0.852022
-0.159853 -0.019423 0.852381
-0.157917 -0.019432 0.852754
-0.155760 -0.019413 0.851930
-0.153730 -0.019410 0.851787
-0.151788 -0.019418 0.852129
-0.149758 -0.019414 0.851987
-0.147798 -0.019420 0.852245
-0.145663 -0.019403 0.851484
-0.143718 -0.019411 0.851824
-0.141767 -0.019418 0.852144
-0.139815 -0.019425 0.852462
-0.137779 -0.019421 0.852277
-0.135826 -0.019428 0.852598
-0.133868 -0.019435 0.852904
-0.131908 -0.019442 0.853203
-0.129768 -0.019422 0.852329
-0.127808 -0.019429 0.852632
-0.125830 -0.019433 0.852819
-0.123807 -0.019431 0.852704
-0.121841 -0.019437 0.852982
-0.119710 -0.019417 0.852097
-0.117674 -0.019412 0.851871
-0.115664 -0.019411 0.851825
-0.113581 -0.019397 0.851236
-0.111593 -0.019400 0.851346
-0.109532 -0.019389 0.850894
-0.107460 -0.019377 0.850332
-0.105489 -0.019382 0.850572
-0.103457 -0.019376 0.850318
-0.101485 -0.019382 0.850552
-0.099375 -0.019360 0.849618
-0.097402 -0.019365 0.849842
-0.095427 -0.019370 0.850064
-0.093451 -0.019375 0.850279
-0.091474 -0.019380 0.850492
-0.089495 -0.019385 0.850698
-0.087515 -0.019390 0.850901
-0.085533 -0.019394 0.851102
-0.083527 -0.019393 0.851061
-0.081518 -0.019392 0.850987
-0.079533 -0.019396 0.851169
-0.077547 -0.019400 0.851351
-0.075604 -0.019415 0.852020
-0.073614 -0.019419 0.852192
-0.071623 -0.019423 0.852358
-0.069684 -0.019441 0.853166
-0.067731 -0.019457 0.853845
-0.065756 -0.019467 0.854284
-0.063773 -0.019475 0.854642
-0.061773 -0.019478 0.854784
-0.059772 -0.019481 0.854923
-0.057849 -0.019511 0.856228
-0.055843 -0.019514 0.856357
-0.053837 -0.019517 0.856482
-0.051829 -0.019519 0.856601
-0.049820 -0.019522 0.856716
-0.047811 -0.019525 0.856826
-0.045801 -0.019527 0.856931
-0.043790 -0.019529 0.857031
-0.041779 -0.019531 0.857127
-0.039767 -0.019533 0.857218
-0.037754 -0.019535 0.857304
-0.035741 -0.019537 0.857385
-0.033727 -0.019539 0.857462
-0.031712 -0.019541 0.857534
-0.029657 -0.019515 0.856427
-0.027644 -0.019517 0.856489
-0.025631 -0.019518 0.856547
-0.023604 -0.019508 0.856100
-0.021561 -0.019482 0.854976
-0.019551 -0.019483 0.855019
-0.017530 -0.019473 0.854558
-0.015521 -0.019474 0.854592
-0.013511 -0.019474 0.854621
-0.011499 -0.019473 0.854546
-0.009490 -0.019475 0.854664
-0.007480 -0.019476 0.854678
-0.005472 -0.019487 0.855163
-0.003461 -0.019487 0.855191
-0.001449 -0.019487 0.855191
0.000563 -0.019487 0.855186
0.002575 -0.019487 0.855177
0.004586 -0.019487 0.855162
0.006598 -0.019486 0.855143
0.008609 -0.019486 0.855119
0.010621 -0.019486 0.855152
0.012649 -0.019512 0.856262
0.014671 -0.019521 0.856690
0.016686 -0.019520 0.856647
0.018700 -0.019519 0.856599
0.020714 -0.019518 0.856546
0.022744 -0.019532 0.857139
0.024790 -0.019555 0.858171
0.026860 -0.019592 0.859788
0.028937 -0.019629 0.861403
0.031036 -0.019675 0.863430
0.033141 -0.019719 0.865358
0.035243 -0.019756 0.866984
0.037425 -0.019832 0.870306
0.039623 -0.019908 0.873636
0.041838 -0.019984 0.876973
0.044008 -0.020032 0.879115
0.046252 -0.020109 0.882465
0.048511 -0.020185 0.885821
0.050787 -0.020262 0.889186
0.053184 -0.020379 0.894304
0.055605 -0.020496 0.899447
0.058053 -0.020613 0.904613
0.060566 -0.020746 0.910409
0.063206 -0.020910 0.917633
0.066084 -0.021140 0.927736
0.069508 -0.021525 0.944605
0.092464 -0.027747 1.217652
0.104682 -0.030469 1.337126
0.107975 -0.030511 1.338951
0.111720 -0.030674 1.346127
0.115345 -0.030797 1.351502
0.118910 -0.030897 1.355896
0.122359 -0.030962 1.358771
0.125789 -0.031020 1.361303
0.129262 -0.031085 1.364158
0.132655 -0.031128 1.366053
