ply
format ascii 1.0
comment generated by convert_depth_to_ply.py
element vertex 1694
property float x
property float y
property float z
end_header
1.897861 0.937919 13.107213
1.913270 0.938220 13.111416
1.927732 0.938055 13.109112
1.945065 0.939279 13.126218
1.959540 0.939115 13.123928
1.974979 0.939412 13.128075
1.992368 0.940625 13.145029
2.006865 0.940465 13.142797
2.023972 0.941521 13.157554
2.040375 0.942238 13.167564
2.058299 0.943640 13.187169
2.072824 0.943476 13.184867
2.090393 0.944689 13.201826
2.106646 0.945295 13.210298
2.124593 0.946647 13.229191
2.139930 0.946826 13.231690
2.157862 0.948142 13.250079
2.173284 0.948345 13.252916
2.191245 0.949646 13.271090
2.206756 0.949874 13.274282
2.225662 0.951551 13.297711
2.243651 0.952815 13.315383
2.259309 0.953080 13.319079
2.277306 0.954321 13.336428
-2.170196 0.881378 12.111784
-2.153871 0.880294 12.096888
-2.143770 0.881756 12.116978
-2.131414 0.882303 12.124497
-2.122268 0.884195 12.150493
-2.112136 0.885698 12.171144
-2.099751 0.886269 12.178997
-2.087253 0.886801 12.186299
-2.077079 0.888333 12.207353
-2.064533 0.888864 12.214654
-2.053639 0.890119 12.231894
-2.040870 0.890572 12.238121
-2.027418 0.890731 12.240313
-2.013983 0.890901 12.242638
-2.000896 0.891227 12.247123
-1.989286 0.892220 12.260772
-1.977436 0.893119 12.273126
-1.963940 0.893282 12.275368
-1.950418 0.893436 12.277473
-1.936909 0.893597 12.279694
-1.923373 0.893749 12.281776
-1.909844 0.893906 12.283934
-1.896294 0.894055 12.285983
-1.882760 0.894214 12.288167
-1.869197 0.894361 12.290195
-1.855636 0.894512 12.292266
-1.842059 0.894657 12.294258
-1.828500 0.894813 12.296409
-1.814910 0.894957 12.298377
-1.801318 0.895101 12.300365
-1.787715 0.895242 12.302301
-1.774132 0.895396 12.304414
-1.760516 0.895535 12.306324
-1.746894 0.895674 12.308230
-1.733265 0.895810 12.310108
-1.722228 0.897300 12.330580
-1.708566 0.897435 12.332439
-1.694961 0.897602 12.334735
-1.681997 0.898115 12.341781
-1.668334 0.898260 12.343767
-1.654644 0.898393 12.345593
-1.640945 0.898523 12.347379
-1.627955 0.899046 12.354572
-1.616703 0.900547 12.375195
-1.602965 0.900677 12.376987
-1.589216 0.900803 12.378718
-1.577816 0.902275 12.398938
-1.564053 0.902409 12.400792
-1.550266 0.902532 12.402478
-1.536477 0.902657 12.404188
-1.523384 0.903196 12.411597
-1.509578 0.903318 12.413281
-1.495767 0.903440 12.414955
-1.481951 0.903561 12.416615
-1.467454 0.903265 12.412546
-1.452329 0.902573 12.403037
-1.437656 0.902152 12.397250
-1.421791 0.900966 12.380961
-1.407276 0.900621 12.376222
-1.393024 0.900439 12.373718
-1.379047 0.900433 12.373635
-1.365250 0.900546 12.375183
-1.351443 0.900654 12.376673
-1.337636 0.900765 12.378194
-1.323819 0.900871 12.379648
-1.308260 0.899781 12.364673
-1.294240 0.899738 12.364081
-1.280435 0.899845 12.365545
-1.268511 0.901290 12.385414
-1.254676 0.901395 12.386854
-1.240828 0.901494 12.388206
-1.227020 0.901623 12.389983
-1.215551 0.903494 12.415694
-1.203966 0.905322 12.440809
-1.190047 0.905416 12.442104
-1.176988 0.906175 12.452543
-1.164585 0.907464 12.470251
-1.152768 0.909247 12.494747
-1.138776 0.909337 12.495986
-1.126986 0.911209 12.521708
-1.115134 0.913078 12.547400
-1.101081 0.913170 12.548663
-1.087517 0.913676 12.555613
-1.075258 0.915305 12.577999
-1.062144 0.916241 12.590858
-1.048905 0.917092 12.602554
-1.035009 0.917384 12.606574
-1.021107 0.917680 12.610640
-1.008464 0.919131 12.630583
-0.994564 0.919462 12.635130
-0.980570 0.919714 12.638593
-0.966387 0.919795 12.639698
-0.952197 0.919870 12.640730
-0.938007 0.919948 12.641802
-0.923810 0.920021 12.642802
-0.909613 0.920096 12.643844
-0.895409 0.920167 12.644813
-0.880874 0.919894 12.641062
-0.866994 0.920308 12.646756
-0.852784 0.920379 12.647729
-0.838530 0.920405 12.648088
-0.824430 0.920603 12.650808
-0.814399 0.925433 12.717175
-0.801777 0.927438 12.744726
-0.797576 0.939435 12.909594
-0.386101 0.463238 6.365753
-0.378705 0.462981 6.362225
-0.370954 0.462271 6.352473
-0.362451 0.460579 6.329218
-0.354683 0.459771 6.318110
-0.347166 0.459262 6.311121
-0.339389 0.458380 6.299003
-0.331964 0.457947 6.293042
-0.324325 0.457192 6.282675
-0.317154 0.457079 6.281113
-0.309617 0.456419 6.272051
-0.302255 0.455995 6.266220
-0.294907 0.455570 6.260386
-0.287815 0.455530 6.259839
-0.280762 0.455553 6.260146
-0.273709 0.455574 6.260445
-0.266623 0.455542 6.259999
-0.259598 0.455616 6.261019
-0.252542 0.455636 6.261293
-0.245629 0.455923 6.265239
-0.238872 0.456527 6.273530
-0.232142 0.457219 6.283050
-0.225336 0.457802 6.291049
-0.218508 0.458376 6.298940
-0.211780 0.459205 6.310328
-0.204904 0.459759 6.317952
-0.197973 0.460227 6.324379
-0.190848 0.460262 6.324865
-0.183190 0.458963 6.307012
-0.175409 0.457240 6.283334
-0.167936 0.456207 6.269130
-0.160582 0.455420 6.258320
-0.153366 0.454972 6.252165
-0.146167 0.454531 6.246102
-0.138982 0.454095 6.240108
-0.131777 0.453539 6.232474
-0.124628 0.453128 6.226822
-0.117514 0.452798 6.222287
-0.110492 0.452806 6.222398
-0.103483 0.452875 6.223345
-0.096541 0.453263 6.228676
-0.089511 0.453269 6.228763
-0.082481 0.453275 6.228841
-0.075467 0.453381 6.230296
-0.068486 0.453727 6.235060
-0.061449 0.453731 6.235115
-0.054426 0.453865 6.236951
-0.047419 0.454181 6.241291
-0.040391 0.454379 6.244017
-0.033373 0.454788 6.249642
-0.026334 0.455073 6.253559
-0.019292 0.455469 6.259000
-0.012245 0.456154 6.268404
-0.005176 0.456811 6.277433
0.001913 0.457574 6.287923
0.009029 0.458480 6.300368
0.016171 0.459316 6.311855
0.023344 0.460263 6.324876
0.030574 0.461626 6.343602
0.037811 0.462565 6.356513
0.045049 0.463204 6.365292
0.052285 0.463654 6.371475
0.059523 0.464014 6.376419
0.066779 0.464418 6.381967
0.074077 0.465003 6.390013
0.081444 0.465885 6.402125
0.088845 0.466800 6.414703
0.096347 0.468066 6.432104
0.103835 0.469092 6.446200
0.111413 0.470363 6.463670
0.118935 0.471257 6.475949
0.126405 0.471855 6.484168
0.134087 0.473132 6.501714
0.141703 0.474057 6.514430
0.149348 0.474983 6.527160
0.157022 0.475911 6.539907
0.164794 0.477040 6.555416
0.172626 0.478237 6.571866
0.180219 0.478699 6.578221
0.187668 0.478758 6.579024
0.195357 0.479403 6.587899
0.203855 0.481911 6.622355
0.212629 0.484872 6.663045
0.221479 0.487798 6.703261
0.230443 0.490773 6.744144
0.239084 0.492894 6.773280
0.247571 0.494574 6.796377
0.255970 0.495983 6.815733
0.264554 0.497656 6.838724
0.273240 0.499422 6.862990
0.281088 0.499601 6.865457
0.288458 0.498945 6.856436
0.295733 0.498162 6.845675
0.303432 0.498115 6.845028
0.311215 0.498205 6.846262
0.319192 0.498594 6.851608
0.327174 0.498971 6.856794
0.334936 0.499004 6.857244
0.342587 0.498872 6.855433
0.350375 0.498943 6.856409
0.358775 0.499862 6.869041
0.366874 0.500333 6.875507
0.374985 0.500800 6.881931
0.383567 0.501864 6.896549
0.393101 0.504107 6.927370
0.400753 0.503896 6.924478
0.704358 0.868697 11.937519
0.765488 0.926367 12.730020
0.778438 0.924681 12.706839
0.796434 0.928941 12.765381
0.811154 0.929295 12.770256
0.825508 0.929226 12.769298
0.839855 0.929151 12.768272
0.854618 0.929532 12.773506
0.869840 0.930391 12.785305
0.885116 0.931278 12.797501
0.900313 0.932055 12.808179
0.914696 0.931978 12.807122
0.930887 0.933718 12.831028
0.946432 0.934766 12.845427
0.961563 0.935379 12.853851
0.976238 0.935537 12.856023
0.991728 0.936460 12.868711
1.006785 0.936954 12.875492
1.021221 0.936863 12.874253
1.037022 0.938011 12.890024
1.052139 0.938516 12.896958
1.066596 0.938426 12.895732
1.081421 0.938659 12.898932
1.097634 0.940074 12.918376
1.112101 0.939977 12.917033
1.127088 0.940315 12.921679
1.143259 0.941620 12.939613
1.157747 0.941523 12.938290
1.172224 0.941420 12.936876
1.186703 0.941322 12.935520
1.201171 0.941216 12.934072
1.215641 0.941115 12.932684
1.230099 0.941008 12.931205
1.244559 0.940904 12.929779
1.259008 0.940794 12.928272
1.273458 0.940688 12.926810
1.288489 0.941009 12.931215
1.302935 0.940899 12.929716
1.317371 0.940786 12.928152
1.332311 0.941030 12.931516
1.348420 0.942086 12.946023
1.363952 0.942721 12.954746
1.379821 0.943572 12.966445
1.394521 0.943615 12.967033
1.409387 0.943768 12.969136
1.425974 0.945058 12.986867
1.441110 0.945370 12.991152
1.456641 0.945933 12.998885
1.472251 0.946535 13.007160
1.487108 0.946645 13.008676
1.501906 0.946717 13.009663
1.516386 0.946588 13.007893
1.530861 0.946460 13.006124
1.548107 0.948030 13.027699
1.562842 0.948047 13.027942
1.577324 0.947913 13.026092
1.591809 0.947782 13.024292
1.608683 0.949063 13.041901
1.621209 0.947779 13.024259
1.635201 0.947368 13.018603
1.648903 0.946797 13.010763
1.661135 0.945400 12.991561
1.674491 0.944661 12.981412
1.688897 0.944523 12.979509
1.703297 0.944383 12.977592
1.714340 0.942400 12.950341
1.728671 0.942244 12.948191
1.743025 0.942102 12.946237
1.757369 0.941957 12.944246
1.771708 0.941812 12.942259
1.786140 0.941718 12.940971
1.801658 0.942194 12.947503
1.818204 0.943195 12.961267
1.832544 0.943046 12.959211
1.848444 0.943695 12.968125
1.865076 0.944704 12.981997
1.882833 0.946263 13.003424
1.897202 0.946109 13.001301
1.911542 0.945943 12.999018
1.925898 0.945786 12.996871
1.940231 0.945621 12.994605
1.956846 0.946563 13.007545
1.973188 0.947360 13.018490
1.990975 0.948832 13.038729
2.005329 0.948660 13.036362
2.022014 0.949585 13.049067
2.038017 0.950178 13.057225
2.056411 0.951870 13.080469
2.070786 0.951690 13.078000
2.089255 0.953381 13.101241
2.107770 0.955070 13.124441
2.122205 0.954899 13.122090
2.139898 0.956186 13.139775
2.155222 0.956403 13.142770
2.173402 0.957877 13.163022
2.188355 0.957919 13.163591
2.206762 0.959461 13.184789
2.225603 0.961170 13.208273
2.240376 0.961111 13.207463
2.255920 0.961382 13.211185
-2.145572 0.885901 11.974360
-2.131583 0.885705 11.971711
-2.119360 0.886245 11.979008
-2.110357 0.888147 12.004717
-2.100387 0.889664 12.025222
-2.088148 0.890233 12.032915
-2.079006 0.892139 12.058676
-2.065783 0.892307 12.060949
-2.055664 0.893827 12.081494
-2.042667 0.894108 12.085287
-2.030038 0.894554 12.091320
-2.017051 0.894848 12.095289
-2.004344 0.895271 12.101007
-1.994086 0.896800 12.121686
-1.980752 0.896959 12.123822
-1.967427 0.897123 12.126046
-1.954079 0.897279 12.128160
-1.940743 0.897443 12.130376
-1.927380 0.897597 12.132457
-1.914030 0.897759 12.134648
-1.900655 0.897912 12.136707
-1.887286 0.898070 12.138839
-1.873895 0.898219 12.140862
-1.860521 0.898379 12.143022
-1.847118 0.898527 12.145025
-1.833718 0.898679 12.147072
-1.820300 0.898824 12.149039
-1.806902 0.898981 12.151164
-1.793472 0.899125 12.153110
-1.782334 0.900429 12.170731
-1.769282 0.900779 12.175456
-1.753176 0.899566 12.159072
-1.739720 0.899706 12.160960
-1.726260 0.899845 12.162844
-1.712791 0.899983 12.164700
-1.701942 0.901510 12.185342
-1.689161 0.902030 12.192369
-1.675648 0.902165 12.194190
-1.662129 0.902298 12.195996
-1.648627 0.902443 12.197959
-1.635218 0.902642 12.200649
-1.624732 0.904472 12.225381
-1.611163 0.904602 12.227135
-1.597606 0.904741 12.229015
-1.586437 0.906247 12.249368
-1.572829 0.906373 12.251079
-1.559894 0.906893 12.258107
-1.546288 0.907029 12.259941
-1.532657 0.907152 12.261607
-1.519025 0.907277 12.263297
-1.508332 0.909176 12.288963
-1.494663 0.909300 12.290630
-1.480988 0.909422 12.292288
-1.467308 0.909544 12.293930
-1.450786 0.907889 12.271560
-1.437122 0.908008 12.273174
-1.422832 0.907730 12.269419
-1.409165 0.907848 12.271007
-1.393371 0.906585 12.253934
-1.379714 0.906700 12.255495
-1.365454 0.906417 12.251673
-1.351793 0.906531 12.253207
-1.336092 0.905265 12.236091
-1.322442 0.905376 12.237595
-1.308782 0.905482 12.239031
-1.295122 0.905591 12.240510
-1.281452 0.905695 12.241912
-1.267783 0.905803 12.243362
-1.256008 0.907280 12.263335
-1.242849 0.907780 12.270097
-1.230999 0.909259 12.290076
-1.217264 0.909362 12.291473
-1.204041 0.909854 12.298131
-1.192163 0.911387 12.318842
-1.180620 0.913215 12.343548
-1.166813 0.913314 12.344888
-1.153864 0.914096 12.355457
-1.141524 0.915384 12.372873
-1.129756 0.917169 12.397003
-1.116021 0.917382 12.399884
-1.104299 0.919276 12.425483
-1.091290 0.920134 12.437081
-1.078407 0.921122 12.450433
-1.064648 0.921378 12.453891
-1.052551 0.923098 12.477139
-1.039017 0.923588 12.483758
-1.025795 0.924372 12.494355
-1.012553 0.925159 12.504999
-0.998524 0.925239 12.506083
-0.984495 0.925323 12.507210
-0.970718 0.925649 12.511614
-0.956838 0.925884 12.514800
-0.942788 0.925960 12.515821
-0.928738 0.926038 12.516882
-0.914681 0.926112 12.517874
-0.900625 0.926188 12.518904
-0.886175 0.925856 12.514418
-0.871035 0.924779 12.499865
-0.858054 0.925998 12.516341
-0.843990 0.926070 12.517304
-0.830246 0.926501 12.523135
-0.816204 0.926608 12.524578
-0.805205 0.930235 12.573601
-0.794228 0.934017 12.624726
-0.784151 0.939015 12.692288
-0.386534 0.471487 6.372895
-0.379011 0.471077 6.367359
-0.370995 0.470029 6.353186
-0.362456 0.468262 6.329300
-0.354650 0.467391 6.317531
-0.347134 0.466874 6.310542
-0.339358 0.465977 6.298425
-0.331745 0.465272 6.288896
-0.324295 0.464769 6.282098
-0.316837 0.464232 6.274829
-0.309461 0.463793 6.268907
-0.302099 0.463355 6.262981
-0.294839 0.463057 6.258948
-0.287788 0.463080 6.259264
-0.280736 0.463103 6.259571
-0.273683 0.463125 6.259870
-0.266629 0.463146 6.260160
-0.259575 0.463167 6.260443
-0.252628 0.463389 6.263443
-0.245814 0.463872 6.269967
-0.239017 0.464418 6.277348
-0.232367 0.465291 6.289151
-0.225589 0.465954 6.298107
-0.218821 0.466684 6.307975
-0.211933 0.467196 6.314891
-0.205050 0.467757 6.322482
-0.198149 0.468313 6.329991
-0.190983 0.468263 6.329321
-0.183209 0.466662 6.307675
-0.175517 0.465145 6.287170
-0.168077 0.464198 6.274374
-0.160722 0.463415 6.263790
-0.153502 0.462964 6.257698
-0.146296 0.462515 6.251631
-0.139073 0.461962 6.244157
-0.131895 0.461511 6.238060
-0.124645 0.460743 6.227674
-0.117618 0.460752 6.227793
-0.110590 0.460760 6.227904
-0.103561 0.460768 6.228007
-0.096532 0.460775 6.228102
-0.089503 0.460781 6.228189
-0.082541 0.461164 6.233365
-0.075517 0.461242 6.234423
-0.068497 0.461361 6.236032
-0.061494 0.461637 6.239760
-0.054459 0.461705 6.240679
-0.047414 0.461708 6.240716
-0.040409 0.462161 6.246844
-0.033387 0.462561 6.252254
-0.026342 0.462791 6.255360
-0.019302 0.463307 6.262333
-0.012245 0.463773 6.268627
-0.005179 0.464692 6.281049
0.001915 0.465550 6.292648
0.009036 0.466468 6.305063
0.016176 0.467116 6.313811
0.023364 0.468350 6.330496
0.030590 0.469566 6.346937
0.037808 0.470232 6.355928
0.045037 0.470796 6.363555
0.052229 0.470874 6.364607
0.059471 0.471330 6.370780
0.066714 0.471697 6.375738
0.074048 0.472568 6.387513
0.081356 0.473138 6.395209
0.088814 0.474415 6.412468
0.096244 0.475359 6.425234
0.103725 0.476403 6.439342
0.111294 0.477692 6.456767
0.118815 0.478628 6.469419
0.126365 0.479565 6.482087
0.133987 0.480658 6.496860
0.141690 0.481914 6.513830
0.149334 0.482855 6.526559
0.157034 0.483881 6.540423
0.164839 0.485123 6.557205
0.172432 0.485659 6.564457
0.179836 0.485643 6.564232
0.187444 0.486156 6.571174
0.195624 0.488059 6.596891
0.203941 0.490151 6.625170
0.213862 0.495812 6.701688
0.223432 0.500302 6.762383
0.229822 0.497610 6.725985
0.239023 0.500980 6.771547
0.247824 0.503330 6.803302
0.254961 0.502260 6.788848
0.264949 0.506707 6.848945
0.277080 0.514882 6.959455
0.283190 0.511727 6.916811
0.290072 0.510099 6.894804
0.297180 0.508942 6.879164
0.304564 0.508306 6.870560
0.312034 0.507840 6.864271
0.319765 0.507813 6.863907
0.327509 0.507806 6.863802
0.335309 0.507886 6.864883
0.342964 0.507745 6.862984
0.351032 0.508210 6.869267
0.359447 0.509146 6.881924
0.367562 0.509626 6.888400
0.375688 0.510101 6.894825
0.383820 0.510565 6.901102
0.392746 0.512047 6.921125
0.399626 0.510853 6.904996
0.526022 0.659565 8.915072
0.764983 0.941186 12.721622
0.772649 0.933100 12.612334
0.787388 0.933695 12.620376
0.803430 0.935788 12.648660
0.817683 0.935759 12.648269
0.832819 0.936724 12.661309
0.847046 0.936651 12.660328
0.862105 0.937486 12.671618
0.877198 0.938329 12.683012
0.892386 0.939246 12.695407
0.907450 0.940006 12.705673
0.922560 0.940788 12.716249
0.938007 0.941885 12.731076
0.953946 0.943435 12.752031
0.968256 0.943353 12.750917
0.982558 0.943265 12.749724
0.997128 0.943433 12.751994
1.012586 0.944424 12.765393
1.027454 0.944846 12.771094
1.043334 0.946173 12.789031
1.058147 0.946510 12.793583
1.072480 0.946414 12.792285
1.087188 0.946647 12.795436
1.102989 0.947812 12.811193
1.117646 0.947978 12.813434
1.131990 0.947877 12.812068
1.146335 0.947780 12.810757
1.160670 0.947677 12.809359
1.175517 0.947990 12.813588
1.189849 0.947884 12.812156
1.203658 0.947370 12.805208
1.217880 0.947188 12.802759
1.230571 0.945835 12.784459
1.246598 0.947046 12.800840
1.260981 0.946996 12.800160
1.275757 0.947239 12.803440
1.290444 0.947411 12.805761
1.306336 0.948453 12.819856
1.320650 0.948341 12.818333
1.334956 0.948224 12.816753
1.349847 0.948521 12.820772
1.364854 0.948893 12.825797
1.381142 0.950138 12.842628
1.396306 0.950592 12.848765
1.411919 0.951339 12.858860
1.426250 0.951216 12.857194
1.441202 0.951506 12.861112
1.455529 0.951380 12.859418
1.472430 0.952924 12.880286
1.487066 0.952986 12.881120
1.501403 0.952856 12.879367
1.515735 0.952727 12.877616
1.532384 0.954041 12.895388
1.546727 0.953910 12.893608
1.561060 0.953774 12.891778
1.575907 0.953952 12.894184
1.590411 0.953921 12.893766
1.604721 0.953776 12.891802
1.618458 0.953295 12.885303
1.632651 0.953090 12.882527
1.646954 0.952951 12.880651
1.661229 0.952799 12.878596
1.672979 0.951214 12.857174
1.686526 0.950669 12.849806
1.698182 0.949077 12.828281
1.712378 0.948919 12.826151
1.726547 0.948749 12.823853
1.740120 0.948257 12.817196
1.755010 0.948484 12.820275
1.771870 0.949765 12.837580
1.786084 0.949617 12.835583
1.803804 0.951321 12.858613
1.818031 0.951170 12.856575
1.832228 0.951006 12.854357
1.850052 0.952712 12.877422
1.864540 0.952688 12.877092
1.880334 0.953326 12.885712
1.896403 0.954092 12.896069
1.910645 0.953934 12.893938
1.924865 0.953768 12.891690
1.939091 0.953608 12.889524
1.957111 0.955301 12.912418
1.973391 0.956127 12.923577
1.989448 0.956833 12.933119
2.006000 0.957765 12.945722
2.021877 0.958364 12.953815
2.040125 0.960070 12.976876
2.054386 0.959889 12.974428
2.072709 0.961595 12.997487
2.089983 0.962794 13.013689
2.105398 0.963125 13.018170
2.119678 0.962936 13.015617
2.138154 0.964643 13.038690
2.156039 0.966062 13.057868
2.171025 0.966171 13.059344
2.186183 0.966356 13.061833
2.203950 0.967683 13.079771
2.222511 0.969338 13.102149
2.237010 0.969212 13.100441
-2.120228 0.889788 11.832913
-2.107287 0.889964 11.835255
-2.098420 0.891873 11.860648
-2.085732 0.892173 11.864636
-2.076479 0.893956 11.888342
-2.067516 0.895887 11.914021
-2.055022 0.896303 11.919563
-2.044532 0.897605 11.936877
-2.032265 0.898139 11.943974
-2.019180 0.898316 11.946327
-2.009979 0.900235 11.971847
-1.996837 0.900402 11.974075
-1.983675 0.900564 11.976219
-1.970530 0.900735 11.978493
-1.957353 0.900893 11.980603
-1.944185 0.901059 11.982800
-1.930995 0.901216 11.984890
-1.917817 0.901380 11.987079
-1.904612 0.901535 11.989134
-1.891419 0.901698 11.991300
-1.878202 0.901851 11.993335
-1.864991 0.902009 11.995440
-1.851759 0.902159 11.997439
-1.838542 0.902320 11.999573
-1.825298 0.902468 12.001551
-1.812055 0.902621 12.003574
-1.798797 0.902767 12.005519
-1.785556 0.902925 12.007616
-1.772285 0.903069 12.009540
-1.761729 0.904610 12.030025
-1.748423 0.904752 12.031916
-1.732464 0.903512 12.015430
-1.719168 0.903653 12.017298
-1.705867 0.903792 12.019158
-1.695151 0.905316 12.039415
-1.681877 0.905486 12.041677
-1.669206 0.905986 12.048332
-1.655852 0.906122 12.050132
-1.642493 0.906256 12.051918
-1.629150 0.906402 12.053856
-1.616862 0.907142 12.063697
-1.605538 0.908439 12.080954
-1.592129 0.908570 12.082686
-1.581169 0.910112 12.103199
-1.567916 0.910350 12.106358
-1.554925 0.910745 12.111615
-1.541466 0.910871 12.113292
-1.529125 0.911665 12.123857
-1.517511 0.912912 12.140437
-1.504014 0.913038 12.142111
-1.490513 0.913164 12.143781
-1.479285 0.914698 12.164180
-1.465751 0.914821 12.165819
-1.450995 0.914177 12.157251
-1.436449 0.913653 12.150290
-1.421250 0.912701 12.137627
-1.406635 0.912108 12.129741
-1.393122 0.912226 12.131310
-1.379212 0.912083 12.129411
-1.365519 0.912082 12.129401
-1.351993 0.912195 12.130897
-1.338467 0.912309 12.132414
-1.324931 0.912418 12.133872
-1.311395 0.912531 12.135364
-1.297848 0.912638 12.136788
-1.284303 0.912748 12.138254
-1.270746 0.912852 12.139644
-1.257192 0.912961 12.141083
-1.243625 0.913063 12.142438
-1.230065 0.913171 12.143886
-1.216985 0.913643 12.150160
-1.205297 0.915182 12.170628
-1.192315 0.915764 12.178364
-1.180407 0.917193 12.197362
-1.167453 0.917834 12.205889
-1.155784 0.919512 12.228206
-1.143860 0.921025 12.248327
-1.130264 0.921213 12.250826
-1.117356 0.921973 12.260940
-1.105837 0.923913 12.286728
-1.093403 0.925128 12.302890
-1.080515 0.925984 12.314278
-1.067944 0.927139 12.329636
-1.056024 0.928896 12.353002
-1.042175 0.928981 12.354133
-1.028749 0.929451 12.360383
-1.014887 0.929534 12.361485
-1.001843 0.930380 12.372729
-0.988680 0.931136 12.382791
-0.975189 0.931602 12.388990
-0.961285 0.931681 12.390033
-0.948844 0.933201 12.410246
-0.934911 0.933277 12.411259
-0.920979 0.933356 12.412313
-0.905642 0.931991 12.394160
-0.891724 0.932068 12.395178
-0.877515 0.931837 12.392111
-0.862189 0.930394 12.372925
-0.849395 0.931681 12.390039
-0.835970 0.932307 12.398359
-0.822075 0.932421 12.399876
-0.808137 0.932490 12.400797
-0.796007 0.934684 12.429969
-0.787566 0.941366 12.518835
-0.788703 0.959949 12.765964
-0.387164 0.479997 6.383277
-0.379562 0.479497 6.376626
-0.370961 0.477690 6.352593
-0.362143 0.475527 6.323836
-0.354617 0.475009 6.316941
-0.347102 0.474483 6.309953
-0.339326 0.473572 6.297837
-0.331579 0.472662 6.285736
-0.324176 0.472214 6.279779
-0.316786 0.471766 6.273821
-0.309410 0.471318 6.267859
-0.301900 0.470640 6.258848
-0.294812 0.470604 6.258365
-0.287761 0.470628 6.258679
-0.280710 0.470651 6.258986
-0.273658 0.470673 6.259285
-0.266605 0.470695 6.259576
-0.259550 0.470716 6.259859
-0.252525 0.470792 6.260866
-0.245709 0.471275 6.267287
-0.238995 0.471987 6.276762
-0.232379 0.472942 6.289462
-0.225703 0.473832 6.301294
-0.218848 0.474393 6.308753
-0.212111 0.475254 6.320201
-0.205199 0.475770 6.327065
-0.198324 0.476412 6.335598
-0.191178 0.476426 6.335793
-0.183391 0.474782 6.313921
-0.175553 0.472867 6.288465
-0.168107 0.471894 6.275527
-0.160864 0.471428 6.269328
-0.153488 0.470512 6.257143
-0.146283 0.470054 6.251056
-0.139093 0.469603 6.245051
-0.131916 0.469152 6.239055
-0.124753 0.468701 6.233056
-0.117607 0.468261 6.227211
-0.110579 0.468270 6.227323
-0.103551 0.468277 6.227425
-0.096523 0.468285 6.227520
-0.089494 0.468291 6.227607
-0.082546 0.468754 6.233770
-0.075510 0.468760 6.233841
-0.068541 0.469223 6.239995
-0.061497 0.469227 6.240049
-0.054454 0.469230 6.240095
-0.047429 0.469422 6.242651
-0.040423 0.469897 6.248958
-0.033387 0.470154 6.252385
-0.026352 0.470567 6.257868
-0.019307 0.471030 6.264025
-0.012249 0.471535 6.270746
-0.005179 0.472265 6.280461
0.001915 0.473201 6.292899
0.009036 0.474137 6.305354
0.016186 0.475075 6.317824
0.023364 0.476014 6.330311
0.030574 0.477026 6.343764
0.037782 0.477615 6.351601
0.044996 0.478079 6.357775
0.052207 0.478396 6.361993
0.059407 0.478540 6.363900
0.066655 0.479003 6.370061
0.073969 0.479802 6.380681
0.081331 0.480745 6.393225
0.088722 0.481689 6.405786
0.096161 0.482733 6.419666
0.103611 0.483681 6.432271
0.111175 0.485004 6.449861
0.118688 0.485954 6.462500
0.126232 0.486916 6.475299
0.133931 0.488335 6.494164
0.141561 0.489370 6.507924
0.149320 0.490725 6.525949
0.157119 0.492079 6.543947
0.164688 0.492622 6.551173
0.172125 0.492742 6.552765
0.179780 0.493451 6.562196
0.187522 0.494331 6.573906
0.196044 0.497124 6.611044
0.204772 0.500215 6.652154
0.216995 0.511322 6.799857
0.326454 0.742967 9.880413
0.397772 0.875372 11.641208
0.425003 0.905388 12.040372
0.448951 0.926766 12.324673
0.457102 0.915231 12.171278
0.449789 0.874309 11.627074
0.403545 0.762179 10.135896
0.301420 0.553598 7.362067
0.291290 0.520637 6.923738
0.298236 0.519124 6.903616
0.305485 0.518200 6.891331
0.313609 0.518772 6.898929
0.320740 0.517711 6.884819
0.328164 0.517164 6.877549
0.335582 0.516632 6.870471
0.343341 0.516637 6.870537
0.351663 0.517469 6.881604
0.359857 0.518083 6.889767
0.367972 0.518559 6.896097
0.376101 0.519034 6.902415
0.384167 0.519404 6.907337
0.392517 0.520138 6.917092
0.400552 0.520432 6.921010
0.444260 0.566178 7.529362
0.756393 0.945873 12.578774
0.765713 0.939884 12.499126
0.779606 0.939623 12.495647
0.794953 0.941093 12.515196
0.809273 0.941316 12.518167
0.824709 0.942808 12.538013
0.839462 0.943482 12.546974
0.854442 0.944385 12.558979
0.869421 0.945257 12.570579
0.884526 0.946235 12.583582
0.900260 0.947846 12.605006
0.914409 0.947762 12.603894
0.930373 0.949534 12.627462
0.945701 0.950614 12.641815
0.960585 0.951221 12.649894
0.974773 0.951132 12.648711
0.988963 0.951047 12.647573
1.003143 0.950955 12.646358
1.017606 0.951131 12.648687
1.033514 0.952632 12.668659
1.049330 0.954010 12.686977
1.063983 0.954308 12.690937
1.078204 0.954215 12.689701
1.092415 0.954115 12.688382
1.106628 0.954020 12.687115
1.120830 0.953918 12.685762
1.135034 0.953821 12.684467
1.149227 0.953717 12.683080
1.163422 0.953617 12.681750
1.177606 0.953510 12.680333
1.191792 0.953408 12.678971
1.205967 0.953299 12.677522
1.220143 0.953194 12.676125
1.234309 0.953083 12.674647
1.248475 0.952975 12.673215
1.262718 0.952927 12.672578
1.277312 0.953142 12.675444
1.291464 0.953027 12.673911
1.306127 0.953287 12.677368
1.321949 0.954378 12.691879
1.336507 0.954543 12.694073
1.352752 0.955897 12.712076
1.366932 0.955778 12.710495
1.381671 0.956049 12.714093
1.396767 0.956558 12.720863
1.412770 0.957672 12.735677
1.428030 0.958265 12.743562
1.443370 0.958899 12.751996
1.457571 0.958771 12.750299
1.471767 0.958643 12.748591
1.486566 0.958906 12.752090
1.500757 0.958776 12.750359
1.514939 0.958642 12.748586
1.531913 0.960261 12.770113
1.546306 0.960248 12.769936
1.560506 0.960115 12.768171
1.576580 0.961128 12.781633
1.589344 0.960122 12.768262
1.603045 0.959696 12.762598
1.616649 0.959219 12.756259
1.630791 0.959068 12.754248
1.642318 0.957394 12.731988
1.656447 0.957254 12.730122
1.669900 0.956728 12.723131
1.683996 0.956578 12.721125
1.698075 0.956419 12.719013
1.712174 0.956275 12.717095
1.726264 0.956128 12.715140
1.740350 0.955981 12.713187
1.754926 0.956103 12.714816
1.771935 0.957539 12.733905
1.789515 0.959257 12.756752
1.803629 0.959105 12.754731
1.817714 0.958939 12.752533
1.833408 0.959619 12.761572
1.849508 0.960499 12.773275
1.863623 0.960342 12.771191
1.879120 0.960895 12.778538
1.895510 0.961892 12.791802
1.909617 0.961724 12.789572
1.923731 0.961563 12.787423
1.941609 0.963271 12.810139
1.956162 0.963317 12.810745
1.973689 0.964815 12.830674
1.987829 0.964649 12.828458
2.005862 0.966359 12.851209
2.022563 0.967409 12.865165
2.038113 0.967897 12.871657
2.052871 0.968004 12.873087
2.070466 0.969439 12.892163
2.087952 0.970802 12.910293
2.102888 0.970970 12.912523
2.117791 0.971119 12.914512
2.135422 0.972510 12.933002
2.150508 0.972730 12.935933
2.168013 0.974034 12.953269
2.183064 0.974226 12.955820
2.200603 0.975517 12.972996
2.211571 0.973898 12.951467
-2.099270 0.895202 11.715948
-2.086463 0.895382 11.718300
-2.073841 0.895643 11.721726
-2.064821 0.897474 11.745683
-2.055264 0.899093 11.766878
-2.043578 0.899796 11.776079
-2.033502 0.901223 11.794744
-2.021208 0.901677 11.800698
-2.009009 0.902181 11.807293
-1.999226 0.903784 11.828271
-1.986233 0.903948 11.830410
-1.973246 0.904116 11.832611
-1.960239 0.904278 11.834729
-1.947250 0.904449 11.836976
-1.934228 0.904609 11.839060
-1.921216 0.904775 11.841232
-1.908182 0.904932 11.843297
-1.895159 0.905098 11.845459
-1.882110 0.905253 11.847490
-1.869073 0.905416 11.849629
-1.856012 0.905570 11.851640
-1.842957 0.905729 11.853720
-1.829881 0.905880 11.855696
-1.816821 0.906041 11.857802
-1.803732 0.906190 11.859757
-1.790646 0.906343 11.861755
-1.777544 0.906490 11.863677
-1.765042 0.906947 11.869660
-1.754093 0.908215 11.886264
-1.740956 0.908362 11.888182
-1.727809 0.908505 11.890053
-1.714681 0.908661 11.892092
-1.699030 0.907472 11.876531
-1.688356 0.908943 11.895781
-1.675183 0.909081 11.897593
-1.662031 0.909234 11.899590
-1.648847 0.909371 11.901386
-1.636288 0.909858 11.907760
-1.623087 0.909993 11.909523
-1.609988 0.910188 11.912073
-1.599813 0.912053 11.936491
-1.586568 0.912185 11.938215
-1.575785 0.913747 11.958652
-1.562679 0.913976 11.961661
-1.549847 0.914372 11.966841
-1.536553 0.914500 11.968513
-1.526231 0.916415 11.993571
-1.512919 0.916552 11.995366
-1.499581 0.916676 11.996994
-1.487240 0.917417 12.006693
-1.475212 0.918367 12.019118
-1.462117 0.918664 12.023004
-1.449027 0.918970 12.027011
-1.435342 0.918900 12.026094
-1.421703 0.918859 12.025558
-1.406987 0.918114 12.015814
-1.392732 0.917659 12.009855
-1.379353 0.917778 12.011410
-1.365966 0.917893 12.012920
-1.352203 0.917756 12.011126
-1.338664 0.917769 12.011292
-1.325271 0.917884 12.012795
-1.311868 0.917994 12.014237
-1.298465 0.918107 12.015716
-1.285052 0.918214 12.017125
-1.271640 0.918325 12.018576
-1.258218 0.918431 12.019954
-1.244796 0.918539 12.021377
-1.231829 0.918989 12.027261
-1.218404 0.919103 12.028759
-1.206846 0.920645 12.048938
-1.193381 0.920750 12.050304
-1.180359 0.921203 12.056242
-1.169160 0.923107 12.081153
-1.157455 0.924651 12.101358
-1.143999 0.924815 12.103517
-1.131273 0.925582 12.113546
-1.119862 0.927456 12.138079
-1.107589 0.928655 12.153761
-1.094915 0.929542 12.165375
-1.083449 0.931491 12.190887
-1.070926 0.932569 12.204993
-1.057404 0.932795 12.207952
-1.044650 0.933713 12.219960
-1.032297 0.935018 12.237046
-1.018581 0.935107 12.238212
-1.006431 0.936657 12.258498
-0.992685 0.936744 12.259634
-0.978931 0.936825 12.260696
-0.965397 0.937122 12.264580
-0.951784 0.937350 12.267568
-0.938018 0.937432 12.268640
-0.925221 0.938500 12.282609
-0.910471 0.937588 12.270681
-0.896690 0.937663 12.271654
-0.882651 0.937464 12.269057
-0.868787 0.937450 12.268865
-0.855006 0.937524 12.269841
-0.841217 0.937594 12.270750
-0.827429 0.937666 12.271693
-0.813635 0.937733 12.272573
-0.799841 0.937803 12.273485
-0.787816 0.939986 12.302058
-0.783407 0.951498 12.452721
-0.858169 1.061346 13.890352
-0.391126 0.492730 6.448605
-0.380207 0.488058 6.387461
-0.370926 0.485348 6.351992
-0.362350 0.483473 6.327449
-0.354584 0.482624 6.316342
-0.347069 0.482090 6.309356
-0.339294 0.481165 6.297240
-0.331547 0.480240 6.285140
-0.323918 0.479449 6.274786
-0.316543 0.479008 6.269009
-0.309181 0.478566 6.263230
-0.301832 0.478124 6.257448
-0.294784 0.478149 6.257771
-0.287453 0.477706 6.251976
-0.280410 0.477730 6.252284
-0.273365 0.477752 6.252582
-0.266319 0.477775 6.252872
-0.259526 0.478263 6.259265
-0.252471 0.478284 6.259540
-0.245579 0.478622 6.263964
-0.238972 0.479554 6.276165
-0.232236 0.480276 6.285613
-0.225561 0.481173 6.297347
-0.218888 0.482132 6.309894
-0.212134 0.482972 6.320892
-0.205413 0.483947 6.333650
-0.198625 0.484830 6.345204
-0.191511 0.484953 6.346824
-0.183677 0.483192 6.323774
-0.175723 0.480959 6.294549
-0.168105 0.479497 6.275420
-0.160851 0.478991 6.268797
-0.153621 0.478512 6.262529
-0.146269 0.477590 6.250462
-0.139080 0.477135 6.244504
-0.131905 0.476680 6.238545
-0.124832 0.476563 6.237013
-0.117710 0.476233 6.232703
-0.110655 0.476150 6.231616
-0.103541 0.475785 6.226834
-0.096514 0.475792 6.226929
-0.089507 0.475910 6.228470
-0.082538 0.476270 6.233178
-0.075525 0.476413 6.235058
-0.068534 0.476745 6.239401
-0.061491 0.476749 6.239456
-0.054449 0.476753 6.239501
-0.047452 0.477222 6.245637
-0.040437 0.477639 6.251099
-0.033384 0.477692 6.251791
-0.026353 0.478160 6.257913
-0.019307 0.478627 6.264033
-0.012255 0.479356 6.273569
-0.005178 0.479837 6.279865
0.001914 0.480787 6.292301
0.009035 0.481739 6.304755
0.016184 0.482692 6.317224
0.023361 0.483646 6.329710
0.030567 0.484601 6.342211
0.037766 0.485106 6.348819
0.044940 0.485191 6.349940
0.052151 0.485591 6.355164
0.059384 0.486070 6.361433
0.066583 0.486202 6.363170
0.073891 0.487027 6.373963
0.081244 0.487976 6.386378
0.088627 0.488934 6.398925
0.096038 0.489894 6.411489
0.103500 0.490958 6.425414
0.111056 0.492298 6.442953
0.118561 0.493263 6.455578
0.126129 0.494366 6.470016
0.133806 0.495747 6.488082
0.141529 0.497151 6.506454
0.149306 0.498593 6.525330
0.156848 0.499153 6.532667
0.164518 0.500053 6.544440
0.172035 0.500428 6.549351
0.179753 0.501336 6.561233
0.187480 0.502192 6.572438
0.195897 0.504764 6.606096
0.227082 0.563661 7.376904
0.385896 0.923986 12.092655
0.410239 0.948713 12.416269
0.421636 0.942855 12.339612
0.434262 0.940033 12.302673
0.447713 0.939118 12.290698
0.463484 0.942976 12.341194
0.478084 0.944297 12.358486
0.492014 0.944258 12.357971
0.500581 0.934212 12.226492
0.431016 0.782804 10.244937
0.305805 0.540885 7.078825
0.305614 0.526781 6.894239
0.313765 0.527402 6.902366
0.321944 0.528036 6.910670
0.329154 0.527091 6.898295
0.336767 0.526818 6.894722
0.344220 0.526314 6.888127
0.352004 0.526326 6.888294
0.360175 0.526904 6.895849
0.368291 0.527379 6.902066
0.376358 0.527766 6.907137
0.384206 0.527835 6.908043
0.392445 0.528430 6.915819
0.400784 0.529132 6.925006
0.424818 0.550132 7.199851
0.752860 0.956639 12.520008
0.759589 0.947405 12.399162
0.771602 0.944976 12.367361
0.786172 0.945709 12.376959
0.801610 0.947442 12.399645
0.816571 0.948562 12.414297
0.832154 0.950353 12.437744
0.847671 0.952013 12.459457
0.861667 0.951936 12.458462
0.877368 0.953716 12.481750
0.892346 0.954667 12.494196
0.907163 0.955417 12.504018
0.922100 0.956270 12.515178
0.937057 0.957117 12.526261
0.952313 0.958241 12.540967
0.967049 0.958815 12.548481
0.981126 0.958728 12.547353
0.995194 0.958636 12.546145
1.009264 0.958548 12.544988
1.023601 0.958713 12.547153
1.039413 0.960236 12.567080
1.053802 0.960421 12.569498
1.067986 0.960416 12.569434
1.083452 0.961549 12.584267
1.097597 0.961497 12.583583
1.111949 0.961623 12.585240
1.124277 0.960019 12.564248
1.138336 0.959915 12.562877
1.152396 0.959814 12.561560
1.166446 0.959707 12.560157
1.180042 0.959233 12.553960
1.192207 0.957622 12.532869
1.206221 0.957516 12.531489
1.220225 0.957405 12.530029
1.236166 0.958798 12.548263
1.250665 0.959054 12.551617
1.264687 0.958943 12.550161
1.280705 0.960331 12.568326
1.294739 0.960217 12.566833
1.308763 0.960099 12.565286
1.322946 0.960097 12.565269
1.338032 0.960745 12.573747
1.353978 0.961990 12.590036
1.368870 0.962468 12.596300
1.384217 0.963253 12.606570
1.398267 0.963128 12.604935
1.412857 0.963375 12.608161
1.428053 0.964025 12.616673
1.443503 0.964832 12.627238
1.457819 0.964873 12.627775
1.471873 0.964742 12.626058
1.485924 0.964611 12.624342
1.502319 0.965990 12.642385
1.516381 0.965857 12.640641
1.530433 0.965719 12.638847
1.544932 0.965864 12.640745
1.559132 0.965821 12.640181
1.572672 0.965374 12.634330
1.586590 0.965165 12.631586
1.600620 0.965027 12.629783
1.614642 0.964886 12.627941
1.628637 0.964732 12.625928
1.642649 0.964591 12.624079
1.656654 0.964448 12.622213
1.670654 0.964305 12.620336
1.684621 0.964145 12.618242
1.698609 0.964000 12.616340
1.712587 0.963852 12.614402
1.726562 0.963703 12.612463
1.743907 0.965424 12.634982
1.758396 0.965548 12.636605
1.775337 0.967006 12.655684
1.789339 0.966853 12.653677
1.804071 0.967093 12.656819
1.820855 0.968421 12.674199
1.834856 0.968259 12.672079
1.849888 0.968640 12.677066
1.866032 0.969593 12.689539
1.880493 0.969663 12.690457
1.894488 0.969494 12.688245
1.908490 0.969331 12.686113
1.926226 0.971053 12.708649
1.940243 0.970888 12.706491
1.958052 0.972610 12.729022
1.972081 0.972442 12.726824
1.988774 0.973581 12.741729
2.004012 0.973996 12.747171
2.021967 0.975717 12.769684
2.036020 0.975544 12.767420
2.050635 0.975640 12.768680
2.068739 0.977383 12.791494
2.086229 0.978814 12.810227
2.100307 0.978636 12.807896
2.114371 0.978454 12.805510
2.129257 0.978652 12.808100
2.146324 0.979843 12.823687
2.161549 0.980183 12.828135
2.179032 0.981535 12.845830
2.193126 0.981353 12.843446
-2.078498 0.900413 11.600023
-2.065095 0.900278 11.598289
-2.053134 0.900775 11.604688
-2.043744 0.902413 11.625786
-2.032066 0.903056 11.634068
-2.022897 0.904829 11.656907
-2.010691 0.905257 11.662433
-2.001231 0.906936 11.684064
-1.988407 0.907103 11.686210
-1.975604 0.907282 11.688513
-1.962765 0.907446 11.690626
-1.949930 0.907615 11.692800
-1.937078 0.907777 11.694894
-1.924241 0.907949 11.697113
-1.911374 0.908109 11.699172
-1.898515 0.908276 11.701318
-1.885635 0.908434 11.703357
-1.872766 0.908600 11.705494
-1.859871 0.908756 11.707500
-1.846988 0.908920 11.709614
-1.834081 0.909074 11.711599
-1.821180 0.909233 11.713655
-1.808259 0.909385 11.715608
-1.797280 0.910523 11.730268
-1.785258 0.911145 11.738288
-1.772306 0.911299 11.740267
-1.759339 0.911447 11.742168
-1.746389 0.911606 11.744220
-1.733409 0.911752 11.746099
-1.720955 0.912179 11.751598
-1.708051 0.912372 11.754092
-1.694519 0.912230 11.752259
-1.681456 0.912341 11.753684
-1.668446 0.912482 11.755503
-1.655429 0.912621 11.757296
-1.642445 0.912781 11.759359
-1.629993 0.913242 11.765294
-1.616953 0.913378 11.767051
-1.603908 0.913513 11.768795
-1.593988 0.915446 11.793697
-1.580909 0.915582 11.795442
-1.570318 0.917173 11.815938
-1.557766 0.917636 11.821905
-1.544658 0.917777 11.823723
-1.532379 0.918417 11.831966
-1.521364 0.919833 11.850205
-1.508196 0.919960 11.851847
-1.497422 0.921563 11.872499
-1.484222 0.921688 11.874112
-1.471248 0.921958 11.877583
-1.458342 0.922275 11.881675
-1.445126 0.922401 11.883287
-1.431904 0.922525 11.884888
-1.418678 0.922648 11.886476
-1.405445 0.922770 11.888042
-1.391906 0.922690 11.887019
-1.378466 0.922676 11.886838
-1.365224 0.922795 11.888375
-1.351975 0.922912 11.889874
-1.338723 0.923029 11.891385
-1.325463 0.923143 11.892849
-1.312202 0.923258 11.894335
-1.298931 0.923369 11.895766
-1.285661 0.923483 11.897228
-1.272380 0.923591 11.898624
-1.259101 0.923703 11.900061
-1.245810 0.923808 11.901423
-1.232521 0.923918 11.902833
-1.219221 0.924021 11.904161
-1.206359 0.924462 11.909850
-1.193045 0.924563 11.911147
-1.179733 0.924668 11.912499
-1.168691 0.926574 11.937060
-1.157184 0.928153 11.957400
-1.144219 0.928585 11.962967
-1.132712 0.930226 11.984106
-1.120004 0.930908 11.992884
-1.108376 0.932514 12.013581
-1.095497 0.933095 12.021068
-1.084099 0.934968 12.045199
-1.071929 0.936215 12.061264
-1.058679 0.936538 12.065417
-1.047200 0.938457 12.090141
-1.034334 0.939166 12.099280
-1.021723 0.940130 12.111695
-1.008319 0.940380 12.114912
-0.994922 0.940643 12.118309
-0.981333 0.940731 12.119432
-0.968596 0.941648 12.131253
-0.956005 0.942736 12.145270
-0.942375 0.942816 12.146294
-0.929699 0.943866 12.159833
-0.916564 0.944477 12.167696
-0.902906 0.944557 12.168728
-0.889240 0.944632 12.169691
-0.875574 0.944709 12.170691
-0.861901 0.944782 12.171622
-0.846874 0.943347 12.153142
-0.832922 0.943083 12.149740
-0.820674 0.944772 12.171504
-0.804742 0.942205 12.138434
-0.790426 0.941475 12.129020
-0.781316 0.947028 12.200557
-0.767676 0.947192 12.202672
-0.818555 1.028422 13.249162
-0.391618 0.501181 6.456720
-0.380277 0.495896 6.388632
-0.371213 0.493434 6.356913
-0.362660 0.491568 6.332865
-0.354838 0.490637 6.320878
-0.347036 0.489696 6.308749
-0.339262 0.488755 6.296634
-0.331515 0.487816 6.284535
-0.323887 0.487012 6.274182
-0.316513 0.486564 6.268406
-0.309151 0.486116 6.262627
-0.301803 0.485667 6.256845
-0.294755 0.485692 6.257168
-0.287426 0.485242 6.251375
-0.280383 0.485266 6.251681
-0.273339 0.485289 6.251980
-0.266293 0.485312 6.252270
-0.259273 0.485381 6.253164
-0.252447 0.485829 6.258936
-0.245536 0.486135 6.262881
-0.238802 0.486820 6.271698
-0.232107 0.487629 6.282121
-0.225691 0.489092 6.300975
-0.219020 0.490081 6.313708
-0.212321 0.491070 6.326459
-0.205721 0.492365 6.343144
-0.198869 0.493131 6.353002
-0.191863 0.493557 6.358493
-0.184021 0.491780 6.335604
-0.176002 0.489371 6.304573
-0.168374 0.487888 6.285461
-0.160835 0.486548 6.268193
-0.153608 0.486069 6.262033
-0.146370 0.485508 6.254803
-0.139198 0.485119 6.249783
-0.132013 0.484642 6.243640
-0.124851 0.484201 6.237965
-0.117699 0.483746 6.232101
-0.110666 0.483755 6.232213
-0.103531 0.483291 6.226233
-0.096505 0.483298 6.226328
-0.089481 0.483325 6.226683
-0.082530 0.483783 6.232577
-0.075518 0.483929 6.234457
-0.068528 0.484266 6.238800
-0.061486 0.484270 6.238854
-0.054443 0.484274 6.238900
-0.047447 0.484750 6.245034
-0.040437 0.485226 6.251166
-0.033381 0.485228 6.251188
-0.026350 0.485703 6.257309
-0.019305 0.486178 6.263429
-0.012254 0.486918 6.272964
-0.005178 0.487407 6.279259
0.001914 0.488372 6.291695
0.009030 0.489087 6.300908
0.016170 0.489916 6.311586
0.023341 0.490884 6.324060
0.030536 0.491789 6.335715
0.037702 0.491978 6.338149
0.044898 0.492434 6.344033
0.052103 0.492839 6.349250
0.059320 0.493255 6.354599
0.066559 0.493741 6.360860
0.073824 0.494307 6.368160
0.081157 0.495190 6.379529
0.088532 0.496163 6.392063
0.095953 0.497226 6.405758
0.103388 0.498211 6.418447
0.110938 0.499581 6.436102
0.118462 0.500677 6.450227
0.126096 0.502079 6.468284
0.133793 0.503567 6.487456
0.141511 0.504977 6.505618
0.149146 0.505964 6.518333
0.156713 0.506639 6.527032
0.164633 0.508346 6.549025
0.172393 0.509429 6.562977
0.180024 0.510060 6.571098
0.187161 0.509296 6.561256
0.235008 0.615153 7.925011
0.374471 0.944264 12.164951
0.391028 0.951134 12.253456
0.402265 0.945038 12.174929
0.417727 0.948941 12.225211
0.432292 0.950622 12.246869
0.446994 0.952492 12.270960
0.461140 0.953101 12.278802
0.473423 0.949934 12.237999
0.484953 0.945480 12.180618
0.500042 0.948019 12.213334
0.517657 0.955083 12.304333
0.537679 0.966101 12.446281
0.423723 0.741957 9.558637
0.313937 0.536067 6.906150
0.325094 0.541666 6.978283
0.332194 0.540401 6.961991
0.338967 0.538677 6.939774
0.345543 0.536722 6.914590
0.352685 0.535715 6.901620
0.360431 0.535648 6.900748
0.368615 0.536222 6.908145
0.376397 0.536198 6.907839
0.384169 0.536162 6.907379
0.391677 0.535767 6.902291
0.400133 0.536658 6.913764
0.411550 0.541410 6.974986
0.739881 0.955070 12.304172
0.750446 0.950858 12.249911
0.764269 0.950852 12.249826
0.779343 0.952375 12.269446
0.793691 0.952972 12.277143
0.809101 0.954803 12.300725
0.824570 0.956639 12.324388
0.839615 0.957933 12.341048
0.854838 0.959382 12.359717
0.868845 0.959443 12.360506
0.884319 0.961096 12.381802
0.899216 0.962080 12.394477
0.913898 0.962808 12.403861
0.928151 0.963069 12.407219
0.942075 0.962985 12.406134
0.956884 0.963795 12.416571
0.971451 0.964342 12.423616
0.985610 0.964474 12.425320
0.999672 0.964509 12.425766
1.015213 0.965950 12.444330
1.029163 0.965858 12.443151
1.043481 0.966109 12.446388
1.057428 0.966015 12.445177
1.071365 0.965915 12.443883
1.085304 0.965819 12.442641
1.099232 0.965716 12.441316
1.113163 0.965617 12.440042
1.126675 0.965163 12.434190
1.140592 0.965061 12.432888
1.154497 0.964953 12.431497
1.168405 0.964850 12.430162
1.182302 0.964740 12.428743
1.196200 0.964633 12.427373
1.210087 0.964521 12.425926
1.223976 0.964412 12.424521
1.237929 0.964356 12.423796
1.252185 0.964535 12.426100
1.266059 0.964418 12.424597
1.279933 0.964303 12.423122
1.294379 0.964619 12.427184
1.310216 0.965952 12.444365
1.326207 0.967370 12.462627
1.340109 0.967249 12.461075
1.354492 0.967476 12.463993
1.369320 0.968012 12.470894
1.384707 0.968928 12.482699
1.399973 0.969742 12.493182
1.415047 0.970408 12.501765
1.428969 0.970279 12.500103
1.443185 0.970350 12.501019
1.457324 0.970368 12.501248
1.471236 0.970236 12.499552
1.486699 0.971120 12.510941
1.501429 0.971513 12.515997
1.515342 0.971375 12.514219
1.529810 0.971592 12.517017
1.543720 0.971453 12.515232
1.557157 0.971023 12.509687
1.568447 0.969273 12.487140
1.582317 0.969134 12.485358
1.596178 0.968993 12.483539
1.610013 0.968839 12.481548
1.623865 0.968697 12.479720
1.640319 0.970097 12.497755
1.654779 0.970303 12.500413
1.668613 0.970142 12.498340
1.682643 0.970096 12.497751
1.699016 0.971392 12.514439
1.712880 0.971242 12.512516
1.730088 0.972976 12.534857
1.744584 0.973170 12.537344
1.761268 0.974571 12.555395
1.775160 0.974416 12.553407
1.789196 0.974343 12.552460
1.806426 0.975996 12.573763
1.820315 0.975833 12.571661
1.834207 0.975674 12.569610
1.848329 0.975638 12.569150
1.865592 0.977249 12.589898
1.879476 0.977079 12.587704
1.893367 0.976914 12.585589
1.907579 0.976917 12.585620
1.924869 0.978484 12.605805
1.941171 0.979530 12.619281
1.956454 0.980049 12.625978
1.970350 0.979872 12.623693
1.987010 0.981062 12.639023
2.002518 0.981670 12.646859
2.019887 0.983175 12.666251
2.033812 0.982995 12.663925
2.048304 0.983089 12.665141
2.064969 0.984218 12.679687
2.080351 0.984724 12.686201
2.094282 0.984541 12.683840
2.111156 0.985735 12.699220
2.125476 0.985727 12.699125
2.140135 0.985876 12.701047
2.158175 0.987571 12.722877
2.172307 0.987466 12.721529
-2.053966 0.903689 11.463113
-2.041430 0.903868 11.465380
-2.032840 0.905807 11.489978
-2.023522 0.907445 11.510756
-2.011585 0.907922 11.516807
-1.999588 0.908377 11.522588
-1.990241 0.910051 11.543820
-1.977583 0.910223 11.545995
-1.968088 0.911862 11.566793
-1.955416 0.912042 11.569073
-1.943363 0.912515 11.575066
-1.930005 0.912377 11.573315
-1.917283 0.912540 11.575386
-1.904578 0.912713 11.577582
-1.891842 0.912874 11.579621
-1.879115 0.913041 11.581744
-1.866366 0.913200 11.583762
-1.853628 0.913367 11.585877
-1.840865 0.913523 11.587862
-1.828458 0.913860 11.592134
-1.815592 0.913970 11.593534
-1.803177 0.914312 11.597862
-1.790384 0.914464 11.599794
-1.777605 0.914626 11.601855
-1.764799 0.914777 11.603767
-1.751996 0.914931 11.605721
-1.739176 0.915080 11.607602
-1.726375 0.915239 11.609629
-1.713544 0.915386 11.611487
-1.700711 0.915534 11.613362
-1.690260 0.916976 11.631659
-1.675297 0.915974 11.618949
-1.662186 0.915977 11.618982
-1.649325 0.916118 11.620780
-1.636457 0.916258 11.622553
-1.623609 0.916412 11.624502
-1.610730 0.916550 11.626256
-1.600429 0.918169 11.646797
-1.588051 0.918615 11.652449
-1.575151 0.918763 11.654322
-1.564753 0.920385 11.674896
-1.552321 0.920828 11.680519
-1.539356 0.920960 11.682192
-1.529003 0.922670 11.703886
-1.516392 0.923036 11.708526
-1.504142 0.923630 11.716061
-1.492783 0.924786 11.730723
-1.480260 0.925236 11.736430
-1.467211 0.925361 11.738025
-1.454161 0.925489 11.739641
-1.442171 0.926299 11.749925
-1.430839 0.927552 11.765807
-1.417748 0.927676 11.767390
-1.404652 0.927800 11.768961
-1.391282 0.927743 11.768242
-1.375755 0.926234 11.749089
-1.362668 0.926353 11.750603
-1.349577 0.926473 11.752122
-1.336480 0.926589 11.753602
-1.323380 0.926707 11.755097
-1.310272 0.926821 11.756544
-1.297163 0.926937 11.758014
-1.284044 0.927049 11.759427
-1.270926 0.927162 11.760872
-1.257797 0.927271 11.762252
-1.244670 0.927383 11.763671
-1.231531 0.927489 11.765017
-1.218395 0.927599 11.766411
-1.205247 0.927703 11.767724
-1.192116 0.927821 11.769230
-1.180866 0.929424 11.789554
-1.168070 0.929831 11.794724
-1.156746 0.931434 11.815058
-1.143921 0.931852 11.820352
-1.132582 0.933504 11.841308
-1.119985 0.934145 11.849446
-1.108560 0.935792 11.870339
-1.097136 0.937480 11.891753
-1.084567 0.938220 11.901140
-1.072872 0.939744 11.920467
-1.061349 0.941458 11.942212
-1.048211 0.941767 11.946125
-1.036497 0.943379 11.966573
-1.023231 0.943602 11.969410
-1.010012 0.943876 11.972876
-0.998362 0.945642 11.995287
-0.985085 0.945895 11.998494
-0.971630 0.945983 11.999605
-0.959032 0.946919 12.011474
-0.946234 0.947680 12.021135
-0.932936 0.947957 12.024643
-0.920521 0.949151 12.039797
-0.908820 0.951129 12.064885
-0.895748 0.951711 12.072265
-0.882190 0.951786 12.073218
-0.868633 0.951864 12.074211
-0.853688 0.950400 12.055637
-0.838521 0.948637 12.033275
-0.822451 0.945778 11.997000
-0.809718 0.946725 12.009017
-0.796717 0.947385 12.017388
-0.795600 0.962444 12.208412
-0.753704 0.927834 11.769388
-0.713000 0.893475 11.333557
-0.565751 0.721909 9.157270
-0.390030 0.506947 6.430526
-0.379547 0.502678 6.376371
-0.371177 0.501095 6.356292
-0.362633 0.499212 6.332403
-0.354804 0.498255 6.320260
-0.347002 0.497298 6.308132
-0.339228 0.496344 6.296019
-0.331483 0.495390 6.283921
-0.323766 0.494437 6.271838
-0.316402 0.493994 6.266214
