ply
format ascii 1.0
comment generated by convert_depth_to_ply.py
element vertex 1739
property float x
property float y
property float z
end_header
0.806945 0.811375 5.478583
0.816122 0.811172 5.477213
0.825387 0.811060 5.476460
0.835078 0.811365 5.478519
0.844424 0.811332 5.478292
0.853587 0.811125 5.476896
0.862903 0.811066 5.476501
-0.850097 0.783145 5.227004
-0.839755 0.781849 5.218353
-0.831042 0.782059 5.219752
-0.822550 0.782483 5.222583
-0.814466 0.783308 5.228091
-0.806122 0.783900 5.232042
-0.798444 0.785159 5.240445
-0.790242 0.785926 5.245564
-0.781647 0.786316 5.248163
-0.773022 0.786684 5.250621
-0.764790 0.787465 5.255835
-0.756185 0.787875 5.258574
-0.747167 0.787862 5.258483
-0.738519 0.788242 5.261018
-0.729824 0.788580 5.263280
-0.721340 0.789158 5.267133
-0.712475 0.789328 5.268272
-0.703724 0.789632 5.270298
-0.694934 0.789897 5.272069
-0.686056 0.790070 5.273221
-0.677098 0.790153 5.273778
-0.668097 0.790187 5.274004
-0.659203 0.790351 5.275099
-0.650308 0.790518 5.276213
-0.640952 0.790123 5.273573
-0.632048 0.790279 5.274620
-0.622968 0.790219 5.274216
-0.614056 0.790372 5.275237
-0.605139 0.790523 5.276243
-0.595837 0.790168 5.273877
-0.586716 0.790047 5.273068
-0.577255 0.789455 5.269120
-0.568281 0.789523 5.269571
-0.559724 0.790181 5.273964
-0.547729 0.785927 5.245573
-0.447672 0.653067 4.358812
-0.436172 0.647078 4.318843
-0.426587 0.643774 4.296787
-0.417589 0.641255 4.279974
-0.408655 0.638745 4.263223
-0.400036 0.636645 4.249206
-0.391737 0.634988 4.238144
-0.383656 0.633627 4.229064
-0.375674 0.632380 4.220739
-0.367774 0.631225 4.213032
-0.359889 0.630050 4.205192
-0.352075 0.628954 4.197874
-0.344597 0.628425 4.194343
-0.337132 0.627899 4.190830
-0.329892 0.627776 4.190011
-0.322273 0.626912 4.184246
-0.314967 0.626631 4.182372
-0.307404 0.625814 4.176917
-0.300266 0.625844 4.177114
-0.292959 0.625514 4.174913
-0.285548 0.624939 4.171073
-0.278360 0.624836 4.170387
-0.271249 0.624905 4.170849
-0.264135 0.624970 4.171283
-0.257019 0.625035 4.171714
-0.249900 0.625097 4.172128
-0.242847 0.625330 4.173683
-0.235722 0.625388 4.174076
-0.228596 0.625445 4.174453
-0.221407 0.625328 4.173675
-0.214278 0.625381 4.174029
-0.207148 0.625433 4.174371
-0.200016 0.625482 4.174700
-0.192883 0.625530 4.175023
-0.185747 0.625576 4.175328
-0.178610 0.625620 4.175623
-0.171472 0.625663 4.175908
-0.164332 0.625703 4.176176
-0.157191 0.625742 4.176433
-0.150049 0.625779 4.176682
-0.142766 0.625203 4.172837
-0.135503 0.624664 4.169240
-0.128363 0.624657 4.169194
-0.121230 0.624687 4.169391
-0.114096 0.624714 4.169577
-0.106961 0.624740 4.169748
-0.099825 0.624764 4.169909
-0.092688 0.624786 4.170056
-0.085550 0.624807 4.170192
-0.078390 0.624653 4.169168
-0.071253 0.624670 4.169279
-0.064056 0.624106 4.165514
-0.056882 0.623650 4.162475
-0.049756 0.623661 4.162549
-0.042629 0.623671 4.162612
-0.035501 0.623678 4.162662
-0.028374 0.623684 4.162699
-0.021252 0.623847 4.163788
-0.014132 0.624299 4.166805
-0.007004 0.624909 4.170878
0.000137 0.624908 4.170866
0.007284 0.625348 4.173805
0.014435 0.625509 4.174883
0.021604 0.626097 4.178808
0.028759 0.626104 4.178854
0.035914 0.626093 4.178781
0.043069 0.626081 4.178697
0.050232 0.626185 4.179393
0.057437 0.626710 4.182898
0.064655 0.627256 4.186538
0.071822 0.627235 4.186404
0.079057 0.627763 4.189925
0.086314 0.628368 4.193965
0.093499 0.628390 4.194112
0.100836 0.629360 4.200584
0.108063 0.629562 4.201932
0.115478 0.630761 4.209938
0.122793 0.631311 4.213607
0.130135 0.631927 4.217715
0.137617 0.633125 4.225712
0.145105 0.634228 4.233074
0.152596 0.635238 4.239815
0.160329 0.637115 4.252345
0.168059 0.638823 4.263742
0.176065 0.641390 4.280877
0.183789 0.642770 4.290084
0.192124 0.646096 4.312286
0.200628 0.649723 4.336493
0.215514 0.673020 4.491986
0.266834 0.804571 5.370009
0.276004 0.804499 5.369524
0.285061 0.804111 5.366936
0.294337 0.804346 5.368505
0.303717 0.804842 5.371819
0.313026 0.805128 5.373728
0.322402 0.805564 5.376636
0.332023 0.806572 5.383362
0.341450 0.807066 5.386661
0.350635 0.806977 5.386067
0.359816 0.806884 5.385444
0.369163 0.807159 5.387278
0.378537 0.807477 5.389403
0.387824 0.807598 5.390213
0.397002 0.807495 5.389524
0.406463 0.807957 5.392604
0.416047 0.808637 5.397146
0.425348 0.808750 5.397897
0.434835 0.809205 5.400938
0.444448 0.809870 5.405377
0.453767 0.809983 5.406128
0.463280 0.810431 5.409122
0.472505 0.810367 5.408694
0.482129 0.810977 5.412761
0.491455 0.811073 5.413404
0.500831 0.811245 5.414550
0.510187 0.811380 5.415454
0.519882 0.812040 5.419855
0.529189 0.812079 5.420122
0.538745 0.812495 5.422894
0.548506 0.813200 5.427597
0.557860 0.813288 5.428189
0.567120 0.813238 5.427853
0.576646 0.813566 5.430040
0.586033 0.813689 5.430861
0.595600 0.814055 5.433305
0.604789 0.813900 5.432274
0.614138 0.813964 5.432700
0.623630 0.814211 5.434345
0.632938 0.814214 5.434370
0.642271 0.814249 5.434604
0.651920 0.814679 5.437473
0.661276 0.814735 5.437842
0.670912 0.815129 5.440477
0.680088 0.814962 5.439362
0.689922 0.815577 5.443463
0.699282 0.815622 5.443766
0.708447 0.815443 5.442568
0.717918 0.815615 5.443719
0.727772 0.816212 5.447703
0.737135 0.816251 5.447963
0.746479 0.816268 5.448077
0.755647 0.816094 5.446918
0.765335 0.816480 5.449492
0.774474 0.816277 5.448137
0.783824 0.816299 5.448287
0.792962 0.816102 5.446972
0.802652 0.816471 5.449434
0.811780 0.816267 5.448072
0.821031 0.816191 5.447560
0.830242 0.816075 5.446789
0.839343 0.815856 5.445326
0.848450 0.815648 5.443938
0.858127 0.815985 5.446191
-0.845257 0.787664 5.197244
-0.835274 0.786643 5.190507
-0.826607 0.786854 5.191897
-0.818008 0.787134 5.193746
-0.809719 0.787721 5.197621
-0.801849 0.788735 5.204310
-0.793681 0.789474 5.209187
-0.785624 0.790342 5.214911
-0.777475 0.791136 5.220152
-0.768942 0.791553 5.222905
-0.760674 0.792257 5.227549
-0.751942 0.792487 5.229068
-0.743157 0.792667 5.230256
-0.734426 0.792911 5.231861
-0.725965 0.793454 5.235445
-0.717489 0.793995 5.239017
-0.708671 0.794167 5.240149
-0.700101 0.794623 5.243159
-0.691272 0.794795 5.244293
-0.682441 0.794968 5.245437
-0.673376 0.794869 5.244783
-0.664530 0.795030 5.245847
-0.655683 0.795195 5.246936
-0.646403 0.794831 5.244535
-0.637355 0.794747 5.243975
-0.628500 0.794904 5.245016
-0.619251 0.794560 5.242744
-0.610392 0.794714 5.243758
-0.601528 0.794865 5.244758
-0.592525 0.794836 5.244563
-0.583584 0.794889 5.244912
-0.574240 0.794386 5.241598
-0.565430 0.794619 5.243133
-0.557915 0.796708 5.256919
-0.536781 0.779099 5.140726
-0.446898 0.659454 4.351274
-0.435341 0.653292 4.310614
-0.425912 0.650166 4.289990
-0.417119 0.647918 4.275155
-0.408548 0.645941 4.262110
-0.399931 0.643817 4.248096
-0.391635 0.642141 4.237037
-0.383579 0.640802 4.228206
-0.375605 0.639553 4.219960
-0.367682 0.638344 4.211983
-0.359821 0.637194 4.204394
-0.352358 0.636718 4.201256
-0.344844 0.636126 4.197350
-0.337366 0.635579 4.193743
-0.329913 0.635055 4.190279
-0.322666 0.634913 4.189345
-0.315066 0.634055 4.183682
-0.307759 0.633760 4.181738
-0.300291 0.633112 4.177463
-0.293071 0.632967 4.176507
-0.285952 0.633039 4.176981
-0.278655 0.632710 4.174809
-0.271519 0.632739 4.174998
-0.264323 0.632627 4.174263
-0.257235 0.632774 4.175231
-0.250165 0.632974 4.176551
-0.243037 0.633035 4.176957
-0.235907 0.633095 4.177350
-0.228775 0.633152 4.177728
-0.221565 0.632990 4.176655
-0.214431 0.633043 4.177010
-0.207296 0.633095 4.177351
-0.200147 0.633106 4.177424
-0.192886 0.632754 4.175097
-0.185698 0.632622 4.174230
-0.178564 0.632667 4.174525
-0.171427 0.632710 4.174809
-0.164289 0.632751 4.175077
-0.157150 0.632789 4.175333
-0.149877 0.632268 4.171894
-0.142613 0.631737 4.168389
-0.135460 0.631661 4.167889
-0.128329 0.631693 4.168097
-0.121198 0.631722 4.168293
-0.114066 0.631751 4.168479
-0.106932 0.631777 4.168650
-0.099798 0.631801 4.168810
-0.092663 0.631823 4.168959
-0.085498 0.631625 4.167654
-0.078315 0.631246 4.165147
-0.071185 0.631262 4.165258
-0.063991 0.630661 4.161292
-0.056867 0.630675 4.161379
-0.049743 0.630686 4.161453
-0.042617 0.630695 4.161515
-0.035492 0.630703 4.161565
-0.028367 0.630708 4.161603
-0.021241 0.630712 4.161628
-0.014121 0.630994 4.163490
-0.006999 0.631667 4.167928
0.000137 0.631946 4.169768
0.007277 0.631942 4.169745
0.014424 0.632263 4.171861
0.021578 0.632547 4.173735
0.028752 0.633156 4.177752
0.035905 0.633145 4.177680
0.043057 0.633132 4.177596
0.050210 0.633118 4.177499
0.057374 0.633245 4.178343
0.064594 0.633882 4.182543
0.071803 0.634300 4.185301
0.078967 0.634278 4.185155
0.086253 0.635164 4.191000
0.093474 0.635468 4.193008
0.100738 0.636003 4.196535
0.108035 0.636653 4.200827
0.115447 0.637866 4.208830
0.122669 0.637943 4.209340
0.130101 0.639044 4.216605
0.137581 0.640256 4.224600
0.145039 0.641246 4.231132
0.152580 0.642495 4.239374
0.160286 0.644291 4.251226
0.168015 0.646018 4.262621
0.176018 0.648614 4.279752
0.183846 0.650380 4.291400
0.192208 0.653830 4.314167
0.200570 0.657022 4.335227
0.214829 0.678616 4.477713
0.265543 0.809911 5.344033
0.274530 0.809427 5.340839
0.283495 0.808914 5.337454
0.292865 0.809553 5.341671
0.301982 0.809473 5.341145
0.311370 0.810102 5.345292
0.320773 0.810736 5.349481
0.330147 0.811261 5.352942
0.339626 0.812011 5.357891
0.348762 0.811921 5.357297
0.358017 0.812107 5.358526
0.367149 0.812011 5.357891
0.376361 0.812092 5.358428
0.385646 0.812323 5.359948
0.394846 0.812369 5.360253
0.404379 0.813082 5.364959
0.413751 0.813446 5.367357
0.423077 0.813708 5.369086
0.432513 0.814163 5.372092
0.441799 0.814325 5.373160
0.451232 0.814744 5.375923
0.460806 0.815397 5.380233
0.470110 0.815556 5.381280
0.479357 0.815611 5.381648
0.488771 0.815943 5.383834
0.498320 0.816484 5.387403
0.507572 0.816527 5.387691
0.516780 0.816500 5.387509
0.526246 0.816875 5.389987
0.535908 0.817534 5.394333
0.545238 0.817675 5.395261
0.554729 0.818047 5.397719
0.564125 0.818269 5.399185
0.573567 0.818551 5.401046
0.582775 0.818495 5.400675
0.592046 0.818526 5.400882
0.601381 0.818645 5.401664
0.610692 0.818727 5.402208
0.620034 0.818850 5.403015
0.629558 0.819204 5.405354
0.638882 0.819291 5.405927
0.648433 0.819663 5.408383
0.657581 0.819524 5.407461
0.667330 0.820126 5.411433
0.676517 0.820029 5.410800
0.685955 0.820237 5.412166
0.695357 0.820396 5.413217
0.704600 0.820365 5.413011
0.714278 0.820835 5.416114
0.723636 0.820931 5.416748
0.733107 0.821150 5.418194
0.742313 0.821071 5.417671
0.752132 0.821663 5.421579
0.761251 0.821485 5.420406
0.770606 0.821565 5.420929
0.779696 0.821362 5.419589
0.788785 0.821163 5.418281
0.797864 0.820959 5.416930
0.806938 0.820753 5.415576
0.816512 0.821056 5.417573
0.825584 0.820853 5.416233
0.834922 0.820916 5.416647
0.843691 0.820423 5.413399
0.853542 0.820984 5.417095
-0.840215 0.791890 5.166240
-0.830348 0.790918 5.159897
-0.821827 0.791220 5.161870
-0.813558 0.791775 5.165489
-0.805559 0.792607 5.170920
-0.797597 0.793495 5.176711
-0.789607 0.794374 5.182450
-0.781576 0.795231 5.188041
-0.773214 0.795768 5.191542
-0.764880 0.796347 5.195319
-0.756646 0.797044 5.199864
-0.747926 0.797240 5.201143
-0.739188 0.797421 5.202323
-0.730514 0.797676 5.203992
-0.722005 0.798120 5.206889
-0.713410 0.798479 5.209230
-0.704886 0.798928 5.212160
-0.696121 0.799112 5.213355
-0.687343 0.799284 5.214481
-0.678562 0.799458 5.215618
-0.669465 0.799260 5.214322
-0.660609 0.799348 5.214898
-0.651815 0.799514 5.215980
-0.642990 0.799647 5.216846
-0.633950 0.799511 5.215962
-0.625143 0.799670 5.216997
-0.615889 0.799253 5.214280
-0.606921 0.799202 5.213944
-0.598107 0.799354 5.214938
-0.589073 0.799212 5.214009
-0.580140 0.799205 5.213964
-0.571316 0.799350 5.214910
-0.562472 0.799472 5.215708
-0.555869 0.802834 5.237642
-0.527075 0.773730 5.047770
-0.446640 0.666586 4.348763
-0.434518 0.659489 4.302467
-0.425465 0.656886 4.285481
-0.416556 0.654417 4.269379
-0.408189 0.652729 4.258365
-0.399825 0.650983 4.246974
-0.391652 0.649488 4.237221
-0.383518 0.648004 4.227541
-0.375534 0.646721 4.219169
-0.367588 0.645454 4.210901
-0.360041 0.644851 4.206967
-0.352539 0.644306 4.203413
-0.344855 0.643398 4.197489
-0.337613 0.643294 4.196812
-0.330135 0.642726 4.193103
-0.322694 0.642205 4.189705
-0.315445 0.642054 4.188721
-0.307854 0.641182 4.183032
-0.300555 0.640891 4.181133
-0.293402 0.640904 4.181219
-0.285994 0.640349 4.177595
-0.278757 0.640156 4.176336
-0.271636 0.640226 4.176798
-0.264511 0.640293 4.177233
-0.257385 0.640359 4.177664
-0.250257 0.640423 4.178078
-0.243126 0.640485 4.178483
-0.235994 0.640545 4.178876
-0.228859 0.640603 4.179254
-0.221722 0.640660 4.179625
-0.214584 0.640714 4.179979
-0.207443 0.640766 4.180321
-0.200189 0.640458 4.178308
-0.193049 0.640507 4.178630
-0.185801 0.640188 4.176545
-0.178590 0.639974 4.175151
-0.171420 0.639895 4.174636
-0.164245 0.639792 4.173967
-0.157108 0.639832 4.174223
-0.149969 0.639870 4.174472
-0.142701 0.639328 4.170937
-0.135480 0.638957 4.168514
-0.128295 0.638723 4.166987
-0.121166 0.638753 4.167184
-0.114035 0.638781 4.167369
-0.106904 0.638807 4.167540
-0.099772 0.638832 4.167701
-0.092639 0.638855 4.167849
-0.085479 0.638679 4.166704
-0.078294 0.638271 4.164038
-0.071166 0.638288 4.164150
-0.063974 0.637680 4.160184
-0.056852 0.637693 4.160271
-0.049729 0.637704 4.160345
-0.042606 0.637714 4.160407
-0.035483 0.637722 4.160457
-0.028359 0.637727 4.160494
-0.021235 0.637731 4.160520
-0.014117 0.638017 4.162382
-0.006998 0.638697 4.166819
0.000137 0.638979 4.168657
0.007275 0.638975 4.168634
0.014413 0.638970 4.168599
0.021572 0.639587 4.172624
0.028744 0.640202 4.176638
0.035895 0.640191 4.176568
0.043046 0.640178 4.176484
0.050196 0.640163 4.176387
0.057346 0.640147 4.176278
0.064558 0.640753 4.180236
0.071784 0.641359 4.184187
0.078946 0.641337 4.184041
0.086217 0.642132 4.189233
0.093449 0.642540 4.191892
0.100712 0.643081 4.195418
0.108006 0.643738 4.199708
0.115416 0.644965 4.207710
0.122756 0.645673 4.212332
0.130100 0.646325 4.216587
0.137565 0.647478 4.224107
0.145078 0.648729 4.232267
0.152653 0.650126 4.241382
0.160343 0.651863 4.252716
0.168035 0.653461 4.263141
0.175972 0.655833 4.278614
0.183692 0.657243 4.287816
0.191890 0.660188 4.307028
0.200310 0.663650 4.329615
0.214362 0.684859 4.467979
0.264060 0.814565 5.314175
0.273008 0.814114 5.311233
0.282097 0.814099 5.311132
0.291409 0.814707 5.315097
0.300636 0.815051 5.317340
0.309757 0.815092 5.317613
0.318974 0.815378 5.319475
0.328526 0.816479 5.326661
0.337624 0.816424 5.326297
0.346898 0.816787 5.328665
0.355981 0.816692 5.328049
0.365213 0.816935 5.329631
0.374503 0.817293 5.331967
0.383744 0.817530 5.333518
0.392827 0.817426 5.332838
0.402047 0.817606 5.334014
0.411548 0.818337 5.338780
0.420874 0.818696 5.341125
0.430177 0.818995 5.343075
0.439713 0.819717 5.347786
0.448995 0.819945 5.349272
0.458344 0.820284 5.351483
0.467631 0.820501 5.352901
0.476991 0.820836 5.355085
0.486287 0.821049 5.356475
0.495379 0.820917 5.355609
0.504751 0.821245 5.357752
0.514054 0.821451 5.359099
0.523609 0.822046 5.362978
0.533013 0.822386 5.365195
0.542360 0.822629 5.366780
0.551765 0.822951 5.368880
0.561091 0.823146 5.370152
0.570183 0.822996 5.369176
0.579592 0.823303 5.371177
0.588787 0.823299 5.371153
0.598346 0.823797 5.374404
0.607429 0.823636 5.373349
0.616765 0.823817 5.374529
0.625844 0.823653 5.373464
0.635273 0.823949 5.375394
0.644970 0.824579 5.379500
0.654324 0.824759 5.380675
0.663393 0.824580 5.379507
0.672844 0.824873 5.381424
0.682323 0.825192 5.383505
0.691643 0.825315 5.384304
0.701000 0.825476 5.385357
0.710310 0.825580 5.386030
0.719735 0.825811 5.387542
0.729284 0.826179 5.389942
0.738621 0.826300 5.390728
0.747705 0.826137 5.389668
0.757185 0.826412 5.391459
0.766226 0.826206 5.390119
0.775265 0.826002 5.388788
0.784628 0.826146 5.389727
0.794105 0.826404 5.391407
0.803136 0.826197 5.390061
0.812152 0.825980 5.388646
0.821517 0.826119 5.389551
0.830523 0.825898 5.388105
0.839226 0.825383 5.384750
0.848520 0.825455 5.385220
-0.836158 0.796948 5.141297
-0.826391 0.796019 5.135307
-0.817816 0.796232 5.136681
-0.809342 0.796548 5.138721
-0.801176 0.797178 5.142786
-0.793380 0.798194 5.149337
-0.785350 0.798995 5.154505
-0.777340 0.799834 5.159921
-0.769205 0.800564 5.164628
-0.760852 0.801080 5.167959
-0.752247 0.801340 5.169636
-0.743943 0.801931 5.173445
-0.735251 0.802113 5.174619
-0.726563 0.802303 5.175846
-0.717963 0.802597 5.177742
-0.709508 0.803061 5.180739
-0.701132 0.803629 5.184402
-0.692414 0.803813 5.185589
-0.683682 0.803987 5.186709
-0.674948 0.804162 5.187839
-0.666211 0.804339 5.188982
-0.657137 0.804107 5.187487
-0.648383 0.804267 5.188518
-0.639329 0.804053 5.187136
-0.630264 0.803820 5.185633
-0.621508 0.803979 5.186660
-0.612450 0.803748 5.185168
-0.603549 0.803718 5.184972
-0.594921 0.804056 5.187158
-0.585962 0.803950 5.186471
-0.576810 0.803572 5.184034
-0.568036 0.803718 5.184975
-0.559261 0.803866 5.185932
-0.552621 0.807138 5.207036
-0.528081 0.783943 5.057402
-0.445789 0.672812 4.340472
-0.433675 0.665628 4.294121
-0.424882 0.663378 4.279609
-0.416452 0.661628 4.268319
-0.407654 0.659219 4.252778
-0.399726 0.658156 4.245919
-0.391717 0.656917 4.237925
-0.383423 0.655144 4.226490
-0.375779 0.654435 4.221916
-0.368028 0.653509 4.215942
-0.360321 0.652625 4.210240
-0.352628 0.651731 4.204472
-0.345292 0.651474 4.202811
-0.337693 0.650698 4.197809
-0.330388 0.650467 4.196314
-0.323085 0.650231 4.194793
-0.315535 0.649475 4.189915
-0.308234 0.649208 4.188193
-0.300766 0.648568 4.184065
-0.293493 0.648328 4.182519
-0.286363 0.648399 4.182974
-0.279068 0.648093 4.180998
-0.271700 0.647595 4.177788
-0.264574 0.647662 4.178221
-0.257321 0.647414 4.176620
-0.250194 0.647478 4.177034
-0.243065 0.647541 4.177439
-0.235975 0.647714 4.178555
-0.228802 0.647660 4.178209
-0.221667 0.647718 4.178580
-0.214530 0.647773 4.178935
-0.207391 0.647826 4.179276
-0.200251 0.647877 4.179605
-0.193109 0.647927 4.179927
-0.185965 0.647974 4.180233
-0.178788 0.647902 4.179771
-0.171589 0.647746 4.178762
-0.164320 0.647298 4.175872
-0.157069 0.646880 4.173178
-0.149932 0.646919 4.173427
-0.142794 0.646955 4.173658
-0.135594 0.646700 4.172012
-0.128451 0.646703 4.172035
-0.121194 0.646104 4.168168
-0.114062 0.646132 4.168353
-0.106877 0.645845 4.166497
-0.099747 0.645869 4.166656
-0.092615 0.645892 4.166805
-0.085483 0.645913 4.166940
-0.078351 0.645932 4.167063
-0.071192 0.645719 4.165684
-0.063995 0.645075 4.161532
-0.056838 0.644718 4.159228
-0.049717 0.644729 4.159302
-0.042595 0.644739 4.159365
-0.035474 0.644747 4.159414
-0.028352 0.644753 4.159451
-0.021234 0.644871 4.160214
-0.014124 0.645531 4.164476
-0.006999 0.646019 4.167624
0.000137 0.646018 4.167613
0.007280 0.646559 4.171103
0.014424 0.646640 4.171626
0.021587 0.647235 4.175466
0.028737 0.647255 4.175594
0.035886 0.647244 4.175522
0.043035 0.647231 4.175437
0.050184 0.647216 4.175341
0.057370 0.647628 4.178003
0.064570 0.648098 4.181035
0.071766 0.648424 4.183139
0.078950 0.648602 4.184282
0.086242 0.649557 4.190446
0.093463 0.649876 4.192503
0.100785 0.650800 4.198465
0.108084 0.651463 4.202743
0.115397 0.652125 4.207013
0.122824 0.653311 4.214661
0.130195 0.654084 4.219650
0.137649 0.655176 4.226697
0.145181 0.656505 4.235267
0.152741 0.657833 4.243838
0.160360 0.659282 4.253184
0.168138 0.661229 4.265744
0.175928 0.663058 4.277544
0.183646 0.664484 4.286744
0.191735 0.667087 4.303538
0.199902 0.669763 4.320796
0.214249 0.692212 4.465622
0.262266 0.818150 5.278078
0.271739 0.819463 5.286549
0.280765 0.819386 5.286053
0.290072 0.820108 5.290712
0.299194 0.820280 5.291823
0.308279 0.820346 5.292243
0.317462 0.820659 5.294263
0.326780 0.821292 5.298350
0.336012 0.821682 5.300863
0.345217 0.821989 5.302844
0.354256 0.821894 5.302231
0.363292 0.821796 5.301603
0.372507 0.822099 5.303554
0.381623 0.822174 5.304038
0.390864 0.822507 5.306187
0.400110 0.822838 5.308320
0.409363 0.823166 5.310438
0.418827 0.823895 5.315143
0.428117 0.824260 5.317493
0.437370 0.824539 5.319295
0.446651 0.824857 5.321349
0.456123 0.825509 5.325555
0.465172 0.825385 5.324755
0.474299 0.825401 5.324856
0.483599 0.825712 5.326864
0.492903 0.826019 5.328841
0.502214 0.826325 5.330819
0.511352 0.826341 5.330922
0.520596 0.826526 5.332111
0.530150 0.827187 5.336378
0.539508 0.827525 5.338558
0.548577 0.827416 5.337856
0.557870 0.827643 5.339324
0.567052 0.827701 5.339697
0.576505 0.828146 5.342563
0.585668 0.828168 5.342706
0.594866 0.828237 5.343151
0.604081 0.828326 5.343729
0.613225 0.828319 5.343680
0.622494 0.828477 5.344701
0.631889 0.828796 5.346761
0.641226 0.829031 5.348272
0.650568 0.829266 5.349793
0.660230 0.829897 5.353858
0.669343 0.829829 5.353424
0.678605 0.829945 5.354171
0.687960 0.830171 5.355627
0.697155 0.830201 5.355821
0.706679 0.830615 5.358496
0.715937 0.830712 5.359117
0.725329 0.830958 5.360708
0.734417 0.830855 5.360040
0.744133 0.831456 5.363922
0.753153 0.831275 5.362748
0.762516 0.831472 5.364021
0.771511 0.831267 5.362697
0.780505 0.831066 5.361403
0.789489 0.830859 5.360067
0.798673 0.830865 5.360108
0.807828 0.830841 5.359953
0.816803 0.830636 5.358628
0.826159 0.830817 5.359795
0.834718 0.830202 5.355829
0.844465 0.830769 5.359487
-0.831737 0.801568 5.114114
-0.821628 0.800251 5.105712
-0.813103 0.800465 5.107078
-0.804901 0.801005 5.110523
-0.797134 0.801995 5.116840
-0.789010 0.802644 5.120976
-0.781205 0.803635 5.127300
-0.773367 0.804615 5.133553
-0.764772 0.804820 5.134860
-0.756477 0.805349 5.138237
-0.748542 0.806279 5.144169
-0.739966 0.806533 5.145788
-0.731321 0.806715 5.146955
-0.722679 0.806907 5.148174
-0.714421 0.807537 5.152194
-0.705764 0.807726 5.153402
-0.697090 0.807900 5.154514
-0.688422 0.808085 5.155694
-0.679740 0.808260 5.156807
-0.671057 0.808436 5.157930
-0.662371 0.808614 5.159067
-0.653669 0.808778 5.160111
-0.644967 0.808945 5.161180
-0.635910 0.808666 5.159398
-0.627149 0.808761 5.160003
-0.618128 0.808518 5.158456
-0.609078 0.808230 5.156615
-0.600207 0.808175 5.156266
-0.591491 0.808329 5.157248
-0.582769 0.808480 5.158215
-0.574044 0.808631 5.159176
-0.565051 0.808403 5.157722
-0.556270 0.808477 5.158195
-0.548313 0.809770 5.166444
-0.536108 0.804729 5.134279
-0.445683 0.680148 4.339440
-0.433842 0.673305 4.295775
-0.424548 0.670245 4.276253
-0.416340 0.668821 4.267169
-0.407655 0.666567 4.252786
-0.399365 0.664889 4.242085
-0.391450 0.663785 4.235038
-0.383319 0.662266 4.225349
-0.375677 0.661550 4.220777
-0.368114 0.660946 4.216923
-0.360242 0.659753 4.209315
-0.352897 0.659497 4.207681
-0.345385 0.658910 4.203935
-0.338098 0.658737 4.202834
-0.330655 0.658247 4.199708
-0.323236 0.657784 4.196752
-0.315927 0.657527 4.195110
-0.308307 0.656598 4.189185
-0.301126 0.656580 4.189073
-0.293600 0.655793 4.184048
-0.286286 0.655450 4.181860
-0.279157 0.655522 4.182323
-0.272004 0.655543 4.182452
-0.264779 0.655388 4.181464
-0.257646 0.655455 4.181895
-0.250371 0.655155 4.179981
-0.243237 0.655219 4.180387
-0.236101 0.655281 4.180779
-0.228963 0.655340 4.181157
-0.221607 0.654758 4.177447
-0.214472 0.654814 4.177801
-0.207335 0.654867 4.178142
-0.200197 0.654919 4.178471
-0.193057 0.654969 4.178793
-0.185915 0.655017 4.179098
-0.178772 0.655063 4.179392
-0.171627 0.655108 4.179677
-0.164443 0.654998 4.178978
-0.157179 0.654550 4.176121
-0.149975 0.654315 4.174616
-0.142755 0.653987 4.172524
-0.135617 0.654022 4.172747
-0.128479 0.654054 4.172954
-0.121339 0.654085 4.173151
-0.114151 0.653839 4.171585
-0.107012 0.653866 4.171755
-0.099852 0.653758 4.171064
-0.092663 0.653425 4.168941
-0.085482 0.653098 4.166855
-0.078329 0.652953 4.165930
-0.071198 0.652971 4.166041
-0.064044 0.652761 4.164706
-0.056854 0.652088 4.160412
-0.049703 0.651737 4.158171
-0.042584 0.651747 4.158234
-0.035464 0.651755 4.158283
-0.028348 0.651860 4.158954
-0.021245 0.652401 4.162409
-0.014131 0.653041 4.166489
-0.006997 0.653041 4.166491
0.000137 0.653271 4.167955
0.007284 0.654138 4.173488
0.014434 0.654307 4.174566
0.021582 0.654299 4.174519
0.028729 0.654290 4.174459
0.035877 0.654279 4.174387
0.043028 0.654331 4.174720
0.050204 0.654689 4.177004
0.057384 0.655004 4.179015
0.064587 0.655493 4.182136
0.071746 0.655472 4.182002
0.079009 0.656321 4.187418
0.086230 0.656706 4.189874
0.093527 0.657568 4.195373
0.100767 0.657934 4.197711
0.108160 0.659186 4.205699
0.115479 0.659857 4.209979
0.122812 0.660526 4.214246
0.130252 0.661666 4.221520
0.137704 0.662742 4.228386
0.145225 0.664023 4.236557
0.152773 0.665304 4.244728
0.160473 0.667099 4.256184
0.168211 0.668887 4.267592
0.175912 0.670388 4.277167
0.183589 0.671679 4.285405
0.191682 0.674338 4.302370
0.199593 0.676180 4.314121
0.215226 0.703117 4.485980
0.261136 0.823703 5.255336
0.270398 0.824506 5.260462
0.279555 0.824947 5.263277
0.288822 0.825675 5.267916
0.297813 0.825593 5.267398
0.306800 0.825508 5.266855
0.315894 0.825703 5.268099
0.325086 0.826140 5.270887
0.334214 0.826394 5.272505
0.343219 0.826338 5.272150
0.352411 0.826725 5.274615
0.361526 0.826915 5.275828
0.370587 0.826976 5.276217
0.379711 0.827170 5.277458
0.388698 0.827065 5.276785
0.397987 0.827593 5.280154
0.407392 0.828332 5.284869
0.416592 0.828631 5.286780
0.425857 0.829045 5.289420
0.435272 0.829728 5.293779
0.444291 0.829642 5.293227
0.453506 0.829919 5.294994
0.462716 0.830177 5.296644
0.472004 0.830561 5.299094
0.481176 0.830732 5.300182
0.490282 0.830784 5.300512
0.499549 0.831101 5.302537
0.508805 0.831389 5.304372
0.517861 0.831346 5.304102
0.527147 0.831667 5.306149
0.536365 0.831873 5.307464
0.545678 0.832216 5.309652
0.554938 0.832468 5.311259
0.564191 0.832703 5.312757
0.573180 0.832546 5.311756
0.582412 0.832741 5.313000
0.591727 0.833046 5.314950
0.600962 0.833233 5.316143
0.610187 0.833400 5.317204
0.619268 0.833369 5.317006
0.628482 0.833513 5.317928
0.637835 0.833837 5.319995
0.647116 0.834058 5.321403
0.656469 0.834364 5.323359
0.665776 0.834605 5.324894
0.675122 0.834887 5.326690
0.684447 0.835136 5.328283
0.693636 0.835215 5.328785
0.702605 0.835030 5.327605
0.712145 0.835520 5.330729
0.721461 0.835738 5.332123
0.730852 0.836036 5.334022
0.739851 0.835884 5.333055
0.749127 0.836045 5.334080
0.758140 0.835912 5.333234
0.767441 0.836096 5.334404
0.776388 0.835894 5.333119
0.785654 0.836037 5.334033
0.794821 0.836073 5.334257
0.803956 0.836074 5.334269
0.812890 0.835868 5.332951
0.821801 0.835644 5.331522
0.830309 0.835020 5.327539
0.839607 0.835194 5.328652
-0.826539 0.805337 5.082150
-0.816838 0.804354 5.075946
-0.808870 0.805074 5.080487
-0.800596 0.805502 5.083192
-0.792700 0.806324 5.088380
-0.784719 0.807076 5.093124
-0.776872 0.807986 5.098865
-0.768803 0.808682 5.103258
-0.760934 0.809607 5.109093
-0.752431 0.809870 5.110755
-0.744328 0.810577 5.115215
-0.735750 0.810776 5.116471
-0.727182 0.810991 5.117829
-0.718813 0.811436 5.120635
-0.710204 0.811618 5.121784
-0.702038 0.812317 5.126194
-0.693410 0.812492 5.127300
-0.684787 0.812678 5.128473
-0.676151 0.812853 5.129580
-0.667513 0.813030 5.130697
-0.658873 0.813209 5.131826
-0.650188 0.813336 5.132628
-0.641159 0.813033 5.130713
-0.632483 0.813173 5.131599
-0.623627 0.813082 5.131026
-0.614963 0.813243 5.132042
-0.605916 0.812895 5.129843
-0.597038 0.812767 5.129037
-0.588483 0.813082 5.131021
-0.579762 0.813173 5.131600
-0.571012 0.813226 5.131930
-0.562033 0.812949 5.130182
-0.553614 0.813484 5.133562
-0.544959 0.813686 5.134837
-0.538817 0.817708 5.160219
-0.497640 0.767810 4.845332
-0.434772 0.682184 4.304979
-0.425323 0.678868 4.284056
-0.416226 0.676008 4.266006
-0.407577 0.673784 4.251975
-0.399419 0.672307 4.242654
-0.391403 0.671020 4.234531
-0.383215 0.669383 4.224197
-0.375792 0.669045 4.222063
-0.368015 0.668051 4.215793
-0.360685 0.667846 4.214497
-0.352987 0.666935 4.208751
-0.345707 0.666793 4.207855
-0.338138 0.666077 4.203333
-0.330854 0.665902 4.202232
-0.323637 0.665858 4.201952
-0.315996 0.664919 4.196032
-0.308701 0.664682 4.194533
-0.301232 0.664051 4.190553
-0.293907 0.663713 4.188416
-0.286667 0.663556 4.187426
-0.279518 0.663606 4.187742
-0.272121 0.663055 4.184265
-0.264818 0.662708 4.182075
-0.257684 0.662776 4.182506
-0.250547 0.662842 4.182920
-0.243408 0.662906 4.183325
-0.236267 0.662968 4.183717
-0.228938 0.662491 4.180707
-0.221698 0.662248 4.179176
-0.214413 0.661849 4.176655
-0.207278 0.661903 4.176996
-0.200142 0.661955 4.177325
-0.193004 0.662006 4.177647
-0.185864 0.662054 4.177951
-0.178723 0.662101 4.178246
-0.171580 0.662146 4.178529
-0.164436 0.662188 4.178797
-0.157290 0.662229 4.179054
-0.150105 0.662099 4.178233
-0.142871 0.661732 4.175919
-0.135588 0.661084 4.171827
-0.128444 0.661081 4.171808
-0.121306 0.661112 4.172005
-0.114167 0.661141 4.172190
-0.107028 0.661169 4.172361
-0.099887 0.661194 4.172521
-0.092731 0.661112 4.172002
-0.085520 0.660593 4.168731
-0.078308 0.659968 4.164785
-0.071178 0.659986 4.164896
-0.064048 0.660001 4.164995
-0.056898 0.659784 4.163625
-0.049738 0.659382 4.161088
-0.042596 0.659124 4.159458
-0.035477 0.659170 4.159747
-0.028369 0.659519 4.161952
-0.021255 0.659908 4.164405
-0.014127 0.660057 4.165344
-0.006995 0.660057 4.165345
0.000137 0.660616 4.168873
0.007284 0.661342 4.173454
0.014430 0.661336 4.173419
0.021576 0.661329 4.173371
0.028721 0.661319 4.173311
0.035869 0.661345 4.173473
0.043054 0.661940 4.177232
0.050205 0.661925 4.177135
0.057412 0.662555 4.181108
0.064570 0.662535 4.180986
0.071727 0.662514 4.180852
0.079009 0.663549 4.187381
0.086206 0.663761 4.188723
0.093540 0.664912 4.195982
0.100739 0.665003 4.196559
0.108130 0.666269 4.204551
0.115447 0.666946 4.208823
0.122778 0.667622 4.213089
0.130217 0.668775 4.220361
0.137648 0.669774 4.226665
0.145168 0.671081 4.234912
0.152692 0.672279 4.242477
0.160429 0.674266 4.255016
0.168165 0.676074 4.266421
0.175896 0.677715 4.276778
0.183528 0.678859 4.283998
0.191444 0.680922 4.297019
0.199334 0.682746 4.308526
0.228472 0.754618 4.762082
0.260120 0.829542 5.234893
0.269232 0.829999 5.237780
0.278428 0.830676 5.242051
0.287576 0.831175 5.245203
0.296529 0.831094 5.244688
0.305478 0.831008 5.244147
0.314425 0.830922 5.243602
0.323482 0.831123 5.244876
0.332633 0.831548 5.247557
0.341580 0.831456 5.246976
0.350524 0.831360 5.246370
0.359498 0.831338 5.246232
0.368613 0.831635 5.248105
0.377705 0.831868 5.249577
0.386909 0.832333 5.252507
0.395967 0.832467 5.253355
0.405232 0.833020 5.256845
0.414605 0.833769 5.261569
0.423607 0.833754 5.261478
0.432973 0.834441 5.265810
0.442106 0.834660 5.267195
0.451318 0.835019 5.269457
0.460272 0.834893 5.268666
0.469489 0.835241 5.270863
0.478802 0.835744 5.274032
0.488060 0.836133 5.276486
0.497015 0.835998 5.275637
0.505966 0.835861 5.274773
0.515090 0.836011 5.275716
0.524527 0.836654 5.279779
0.533824 0.837057 5.282321
0.542779 0.836918 5.281442
0.551917 0.837061 5.282349
0.560951 0.837045 5.282243
0.570353 0.837570 5.285556
0.579455 0.837644 5.286024
0.588602 0.837780 5.286882
0.597667 0.837798 5.286994
0.606682 0.837745 5.286665
0.615922 0.838000 5.288272
0.625148 0.838229 5.289715
0.634474 0.838584 5.291955
0.643657 0.838743 5.292960
0.653254 0.839428 5.297285
0.662536 0.839696 5.298975
0.671541 0.839611 5.298437
0.680621 0.839620 5.298494
0.689974 0.839962 5.300650
0.699140 0.840070 5.301334
0.708500 0.840405 5.303448
0.717612 0.840441 5.303675
0.726583 0.840313 5.302866
0.736198 0.840924 5.306723
0.745587 0.841265 5.308872
0.754490 0.841056 5.307555
0.763390 0.840848 5.306246
0.772289 0.840646 5.304968
0.781452 0.840731 5.305505
0.790599 0.840797 5.305923
0.799713 0.840827 5.306114
0.808599 0.840620 5.304803
0.817750 0.840689 5.305241
0.825876 0.839715 5.299091
0.835461 0.840229 5.302336
-0.822986 0.810617 5.060308
-0.812991 0.809293 5.052042
-0.804556 0.809510 5.053392
-0.796170 0.809782 5.055091
-0.788508 0.810803 5.061466
-0.780715 0.811712 5.067140
-0.772760 0.812471 5.071877
-0.765054 0.813511 5.078370
-0.756731 0.813912 5.080873
-0.748384 0.814296 5.083271
-0.740411 0.815100 5.088294
-0.732083 0.815529 5.090966
-0.723585 0.815776 5.092512
-0.715477 0.816475 5.096875
-0.706908 0.816658 5.098017
-0.698343 0.816849 5.099212
-0.689760 0.817026 5.100312
-0.681183 0.817212 5.101478
-0.672592 0.817389 5.102578
-0.663999 0.817566 5.103688
-0.655405 0.817746 5.104811
-0.646794 0.817912 5.105843
-0.637739 0.817511 5.103343
-0.629114 0.817659 5.104263
-0.619912 0.817049 5.100459
-0.611299 0.817211 5.101468
-0.602619 0.817285 5.101934
-0.593895 0.817301 5.102033
-0.585270 0.817457 5.103003
-0.576640 0.817610 5.103959
-0.568006 0.817762 5.104910
-0.559366 0.817910 5.105834
-0.550725 0.818061 5.106774
-0.542611 0.819013 5.112717
-0.534557 0.820087 5.119426
-0.527120 0.822160 5.132363
-0.488686 0.775136 4.838818
-0.428055 0.690677 4.311575
-0.418410 0.686961 4.288382
-0.408994 0.683498 4.266758
-0.399993 0.680613 4.248754
-0.391677 0.678810 4.237494
-0.383739 0.677604 4.229970
-0.375837 0.676419 4.222571
-0.367921 0.675160 4.214711
-0.360755 0.675256 4.215310
-0.353421 0.675034 4.213924
-0.345739 0.674124 4.208244
-0.338544 0.674146 4.208378
-0.330892 0.673239 4.202719
-0.323616 0.673074 4.201687
-0.316231 0.672668 4.199156
-0.308757 0.672051 4.195303
-0.301555 0.672008 4.195035
-0.294324 0.671899 4.194353
-0.286894 0.671319 4.190732
-0.279554 0.670925 4.188273
-0.272412 0.670999 4.188737
-0.265193 0.670882 4.188002
-0.257797 0.670296 4.184346
-0.250482 0.669895 4.181841
-0.243345 0.669959 4.182246
-0.236206 0.670022 4.182639
-0.229065 0.670083 4.183016
-0.221732 0.669570 4.179813
-0.214567 0.669545 4.179657
-0.207369 0.669412 4.178831
-0.200230 0.669465 4.179160
-0.193089 0.669517 4.179482
-0.185946 0.669565 4.179787
-0.178851 0.669800 4.181248
-0.171600 0.669443 4.179024
-0.164393 0.669234 4.177718
-0.157249 0.669275 4.177974
-0.150104 0.669315 4.178223
-0.142925 0.669198 4.177495
-0.135686 0.668775 4.174850
-0.128500 0.668579 4.173628
-0.121275 0.668146 4.170927
-0.114138 0.668176 4.171112
-0.107000 0.668203 4.171283
-0.099861 0.668229 4.171443
-0.092722 0.668252 4.171590
-0.085498 0.667622 4.167654
-0.078307 0.667158 4.164758
-0.071160 0.667008 4.163820
-0.064032 0.667024 4.163918
-0.056903 0.667037 4.164004
-0.049774 0.667049 4.164077
-0.042632 0.666873 4.162979
-0.035506 0.666915 4.163240
-0.028384 0.667073 4.164228
-0.021254 0.667077 4.164254
-0.014124 0.667079 4.164267
-0.006996 0.667333 4.165852
0.000137 0.667729 4.168325
0.007282 0.668378 4.172376
0.014426 0.668373 4.172340
0.021570 0.668365 4.172292
0.028714 0.668355 4.172233
0.035883 0.668827 4.175175
0.043043 0.668983 4.176152
0.050206 0.669145 4.177160
0.057397 0.669604 4.180027
0.064553 0.669585 4.179906
0.071746 0.669918 4.181988
0.078988 0.670609 4.186299
0.086184 0.670824 4.187641
0.093516 0.671986 4.194898
0.100713 0.672078 4.195474
0.108102 0.673358 4.203465
0.115417 0.674043 4.207736
0.122725 0.674609 4.211271
0.130116 0.675546 4.217119
0.137582 0.676748 4.224626
0.145103 0.678090 4.233003
0.152653 0.679432 4.241382
0.160388 0.681441 4.253918
0.168134 0.683320 4.265652
0.175828 0.684836 4.275115
0.183660 0.686753 4.287077
0.191395 0.688168 4.295911
0.199885 0.692094 4.320420
0.244714 0.817074 5.100616
0.259008 0.835000 5.212516
0.268338 0.836259 5.220376
0.277189 0.835994 5.218725
0.286341 0.836627 5.222673
0.295255 0.836545 5.222160
0.304013 0.836040 5.219008
0.312856 0.835789 5.217442
0.321957 0.836224 5.220157
0.330882 0.836190 5.219948
0.339781 0.836093 5.219340
0.348775 0.836230 5.220198
0.357737 0.836284 5.220536
0.366820 0.836612 5.222578
0.375762 0.836611 5.222578
0.384984 0.837218 5.226367
0.394122 0.837621 5.228879
0.403169 0.837815 5.230090
0.412416 0.838407 5.233787
0.421758 0.839164 5.238509
0.430696 0.839101 5.238119
0.440031 0.839800 5.242481
0.449120 0.840010 5.243793
0.458296 0.840370 5.246041
0.467207 0.840242 5.245239
0.476394 0.840604 5.247504
0.485490 0.840796 5.248701
0.494536 0.840896 5.249325
0.503793 0.841345 5.252124
0.512699 0.841201 5.251225
0.521602 0.841058 5.250333
0.530649 0.841148 5.250895
0.539932 0.841604 5.253744
0.549036 0.841769 5.254776
0.558257 0.842106 5.256875
0.567152 0.841947 5.255886
0.576205 0.842026 5.256378
0.585590 0.842578 5.259826
0.594815 0.842888 5.261761
0.603866 0.842947 5.262127
0.612755 0.842780 5.261086
0.621794 0.842821 5.261338
0.631307 0.843494 5.265544
0.640641 0.843912 5.268153
0.649702 0.843966 5.268486
0.659095 0.844441 5.271456
0.668273 0.844633 5.272653
0.677462 0.844834 5.273906
0.686342 0.844649 5.272749
0.695411 0.844698 5.273058
0.704628 0.844923 5.274460
0.713835 0.845131 5.275761
0.723211 0.845531 5.278261
0.732072 0.845327 5.276982
0.741182 0.845412 5.277513
0.750519 0.845750 5.279622
0.759584 0.845778 5.279798
0.768440 0.845574 5.278527
0.777827 0.845953 5.280891
0.786673 0.845742 5.279575
0.795505 0.845520 5.278192
0.804503 0.845479 5.277930
0.813390 0.845322 5.276953
0.821986 0.844871 5.274136
0.831019 0.844873 5.274148
-0.818824 0.815215 5.034717
-0.808866 0.813869 5.026403
-0.800473 0.814086 5.027747
-0.792243 0.814477 5.030158
-0.784320 0.815194 5.034587
-0.776667 0.816211 5.040869
-0.768909 0.817139 5.046602
-0.760609 0.817506 5.048867
-0.752850 0.818470 5.054818
-0.744411 0.818707 5.056282
-0.736498 0.819536 5.061406
-0.728163 0.819909 5.063707
-0.719655 0.820095 5.064853
-0.711260 0.820415 5.066834
-0.703173 0.821102 5.071075
-0.694708 0.821360 5.072669
-0.686258 0.821643 5.074419
-0.677582 0.821659 5.074515
-0.669037 0.821836 5.075609
-0.660490 0.822015 5.076713
-0.651940 0.822196 5.077829
-0.642882 0.821731 5.074961
-0.634321 0.821898 5.075992
-0.625633 0.821902 5.076016
-0.617065 0.822067 5.077034
-0.608357 0.822047 5.076911
-0.599455 0.821761 5.075146
-0.590820 0.821839 5.075624
-0.582244 0.822000 5.076623
-0.573998 0.822641 5.080581
-0.565555 0.823014 5.082883
-0.556953 0.823163 5.083804
-0.548348 0.823314 5.084739
-0.539744 0.823471 5.085706
-0.531727 0.824542 5.092322
-0.522354 0.823512 5.085958
-0.515937 0.827186 5.108649
-0.467359 0.762226 4.707459
-0.424037 0.703709 4.346063
-0.412913 0.697488 4.307642
-0.402531 0.692317 4.275709
-0.392820 0.688131 4.249856
-0.384053 0.685473 4.233441
-0.375763 0.683579 4.221744
-0.367818 0.682251 4.213538
-0.360655 0.682347 4.214136
-0.353421 0.682314 4.213927
-0.345832 0.681578 4.209384
-0.338485 0.681296 4.207645
-0.331136 0.681000 4.205811
-0.323526 0.680142 4.200515
-0.316374 0.680229 4.201050
-0.308979 0.679785 4.198308
-0.301470 0.679065 4.193863
-0.294324 0.679144 4.194353
-0.287174 0.679221 4.194827
-0.279964 0.679154 4.194414
-0.272545 0.678566 4.190784
-0.265193 0.678116 4.188001
-0.258029 0.678133 4.188107
-0.250760 0.677870 4.186484
-0.243361 0.677227 4.182511
-0.236140 0.677058 4.181469
-0.229001 0.677119 4.181846
-0.221860 0.677179 4.182217
-0.214672 0.677095 4.181697
-0.207528 0.677150 4.182037
-0.200383 0.677203 4.182367
-0.193237 0.677256 4.182689
-0.186099 0.677344 4.183237
-0.178938 0.677353 4.183288
-0.171787 0.677399 4.183571
-0.164489 0.676844 4.180148
-0.157248 0.676489 4.177955
-0.150062 0.676343 4.177052
-0.142918 0.676380 4.177284
-0.135772 0.676416 4.177505
-0.128598 0.676307 4.176827
-0.121334 0.675680 4.172960
-0.114106 0.675192 4.169942
-0.106970 0.675219 4.170114
-0.099833 0.675245 4.170273
-0.092696 0.675269 4.170421
-0.085512 0.674930 4.168325
-0.078342 0.674652 4.166608
-0.071199 0.674567 4.166084
-0.064014 0.674027 4.162751
-0.056887 0.674041 4.162837
-0.049760 0.674053 4.162911
-0.042632 0.674063 4.162973
-0.035505 0.674071 4.163023
-0.028376 0.674077 4.163060
-0.021254 0.674270 4.164250
-0.014131 0.674601 4.166296
-0.006997 0.674678 4.166772
0.000137 0.675070 4.169192
0.007280 0.675396 4.171205
0.014422 0.675390 4.171169
0.021564 0.675383 4.171122
0.028706 0.675373 4.171062
0.035882 0.676021 4.175066
0.043036 0.676101 4.175558
0.050227 0.676652 4.178964
0.057381 0.676635 4.178855
0.064535 0.676615 4.178734
0.071751 0.677190 4.182283
0.078994 0.677893 4.186624
0.086160 0.677867 4.186466
0.093490 0.679042 4.193722
0.100685 0.679135 4.194299
0.108072 0.680429 4.202286
0.115385 0.681120 4.206557
0.122691 0.681693 4.210091
0.130053 0.682500 4.215075
0.137457 0.683427 4.220800
0.144984 0.684842 4.229544
0.152541 0.686259 4.238291
0.160153 0.687782 4.247700
0.167827 0.689426 4.257853
0.175737 0.691864 4.272910
0.183626 0.694030 4.286284
0.191195 0.694864 4.291436
0.200348 0.701179 4.330441
0.247427 0.835042 5.157168
0.258425 0.842103 5.200778
0.267106 0.841398 5.196419
0.275958 0.841256 5.195545
0.284827 0.841176 5.195050
0.293693 0.841093 5.194540
0.302557 0.841007 5.194005
0.311418 0.840919 5.193465
0.320277 0.840829 5.192909
0.329132 0.840737 5.192340
0.337984 0.840639 5.191737
0.346906 0.840718 5.192225
0.355827 0.840789 5.192658
0.364956 0.841337 5.196047
0.374094 0.841878 5.199388
0.382948 0.841771 5.198728
0.392069 0.842242 5.201635
0.401342 0.843011 5.206381
0.410290 0.843080 5.206811
0.419525 0.843721 5.210769
0.428508 0.843841 5.211510
0.437704 0.844367 5.214759
0.446719 0.844529 5.215759
0.455897 0.844987 5.218585
0.464959 0.845216 5.220001
0.474060 0.845505 5.221789
0.482923 0.845369 5.220948
0.491887 0.845410 5.221202
0.501019 0.845735 5.223207
0.509988 0.845776 5.223461
0.518952 0.845809 5.223667
0.528211 0.846313 5.226774
0.537067 0.846164 5.225858
0.546032 0.846190 5.226020
0.555306 0.846687 5.229084
0.564271 0.846705 5.229195
0.573558 0.847197 5.232234
0.582408 0.847037 5.231246
0.591373 0.847048 5.231317
0.600541 0.847345 5.233149
0.609619 0.847507 5.234153
0.618906 0.847952 5.236900
0.627797 0.847850 5.236271
0.637264 0.848517 5.240388
0.646304 0.848605 5.240930
0.655565 0.848976 5.243220
0.664534 0.848965 5.243154
0.673882 0.849431 5.246031
0.682790 0.849338 5.245461
0.692015 0.849637 5.247306
0.701046 0.849693 5.247653
0.710013 0.849670 5.247509
0.719328 0.850061 5.249921
0.728356 0.850105 5.250196
0.737743 0.850563 5.253025
0.746553 0.850352 5.251723
0.755359 0.850143 5.250430
0.764326 0.850116 5.250265
0.773381 0.850187 5.250705
0.782602 0.850439 5.252256
0.791468 0.850301 5.251404
0.800262 0.850091 5.250109
0.809656 0.850516 5.252732
0.817663 0.849490 5.246397
0.826572 0.849413 5.245924
-0.814314 0.819374 5.006984
-0.804533 0.818146 4.999482
-0.796185 0.818364 5.000817
-0.788482 0.819258 5.006276
-0.780471 0.819848 5.009881
-0.772485 0.820476 5.013721
-0.764627 0.821257 5.018496
-0.756952 0.822254 5.024587
-0.748753 0.822699 5.027306
-0.740406 0.822990 5.029081
-0.732561 0.823851 5.034347
-0.724274 0.824230 5.036663
-0.716399 0.825094 5.041940
-0.707933 0.825289 5.043131
-0.699454 0.825474 5.044261
-0.690979 0.825667 5.045442
-0.682486 0.825845 5.046528
-0.673999 0.826034 5.047681
-0.665499 0.826211 5.048769
-0.656997 0.826391 5.049866
-0.648493 0.826573 5.050976
-0.639973 0.826740 5.051996
-0.631444 0.826898 5.052967
-0.622401 0.826379 5.049795
-0.613801 0.826443 5.050181
-0.605127 0.826406 5.049956
-0.596242 0.826077 5.047947
-0.587674 0.826182 5.048590
-0.579177 0.826393 5.049880
-0.570948 0.826999 5.053584
-0.562564 0.827394 5.055997
-0.554470 0.828237 5.061147
-0.545981 0.828505 5.062785
-0.537406 0.828651 5.063673
-0.528900 0.828909 5.065251
-0.520273 0.828983 5.065703
-0.511025 0.828052 5.060017
-0.487781 0.804020 4.913164
-0.429932 0.721102 4.406473
-0.417520 0.712795 4.355708
-0.406740 0.707021 4.320426
-0.396156 0.701380 4.285956
-0.386556 0.697300 4.261024
-0.377367 0.693820 4.239757
-0.368382 0.690586 4.219995
-0.360824 0.689952 4.216119
-0.353379 0.689510 4.213422
-0.346077 0.689336 4.212357
-0.338389 0.688371 4.206460
-0.331208 0.688416 4.206736
-0.323726 0.687823 4.203111
-0.316285 0.687292 4.199866
-0.309131 0.687376 4.200378
-0.301689 0.686807 4.196901
-0.294487 0.686771 4.196685
-0.287093 0.686274 4.193644
-0.279943 0.686349 4.194107
-0.272784 0.686407 4.194459
-0.265367 0.685799 4.190746
-0.257976 0.685227 4.187250
-0.250831 0.685295 4.187663
-0.243537 0.684949 4.185547
-0.236073 0.684088 4.180288
-0.228936 0.684150 4.180665
-0.221797 0.684210 4.181034
-0.214656 0.684268 4.181388
-0.207513 0.684324 4.181729
-0.200369 0.684378 4.182058
-0.193222 0.684430 4.182379
-0.186074 0.684480 4.182683
-0.178925 0.684528 4.182978
-0.171774 0.684575 4.183261
-0.164622 0.684618 4.183530
-0.157446 0.684565 4.183206
-0.150151 0.683963 4.179526
-0.142997 0.683976 4.179602
-0.135734 0.683439 4.176322
-0.128589 0.683473 4.176530
-0.121442 0.683496 4.176672
-0.114263 0.683335 4.175684
-0.107040 0.682870 4.172846
-0.099805 0.682256 4.169092
-0.092670 0.682280 4.169240
-0.085533 0.682302 4.169375
-0.078386 0.682228 4.168920
-0.071249 0.682246 4.169030
-0.064112 0.682262 4.169129
-0.056974 0.682268 4.169164
-0.049829 0.682194 4.168713
-0.042692 0.682213 4.168828
-0.035554 0.682202 4.168764
-0.028403 0.681897 4.166902
-0.021281 0.682317 4.169465
-0.014141 0.682319 4.169478
-0.007002 0.682319 4.169479
0.000137 0.682378 4.169836
0.007278 0.682408 4.170023
0.014418 0.682402 4.169988
0.021558 0.682395 4.169940
0.028722 0.682956 4.173372
0.035875 0.683091 4.174195
0.043060 0.683693 4.177876
0.050213 0.683677 4.177780
0.057365 0.683660 4.177671
0.064517 0.683640 4.177550
0.071770 0.684597 4.183400
0.078972 0.684931 4.185438
0.086135 0.684905 4.185281
0.093464 0.686092 4.192534
0.100656 0.686186 4.193110
0.108042 0.687493 4.201097
0.115256 0.687615 4.201844
0.122656 0.688770 4.208899
0.130017 0.689586 4.213882
0.137377 0.690314 4.218336
0.144825 0.691388 4.224899
0.152349 0.692704 4.232941
0.159914 0.694082 4.241357
0.167699 0.696249 4.254602
0.175687 0.699047 4.271701
0.183398 0.700560 4.280947
0.191738 0.704269 4.303608
0.203549 0.719981 4.399622
0.247083 0.842777 5.149998
0.257123 0.846800 5.174578
0.265932 0.846637 5.173584
0.274765 0.846558 5.173100
0.283596 0.846477 5.172607
0.292425 0.846394 5.172099
0.301069 0.845798 5.168456
0.309778 0.845415 5.166120
0.318626 0.845420 5.166148
0.327391 0.845211 5.164871
0.336242 0.845229 5.164981
0.345046 0.845132 5.164386
0.354144 0.845740 5.168103
0.363107 0.846004 5.169719
0.372114 0.846358 5.171877
0.381145 0.846747 5.174255
0.390107 0.846967 5.175600
0.399210 0.847479 5.178730
0.408452 0.848257 5.183483
0.417338 0.848277 5.183608
0.426564 0.848974 5.187862
0.435478 0.849034 5.188232
0.444639 0.849564 5.191472
0.453523 0.849555 5.191415
0.462730 0.850137 5.194972
0.471617 0.850123 5.194886
0.480838 0.850698 5.198402
0.489660 0.850562 5.197567
0.498478 0.850423 5.196716
0.507290 0.850277 5.195828
0.516171 0.850251 5.195668
0.525417 0.850817 5.199125
0.534334 0.850840 5.199267
0.543560 0.851347 5.202365
0.552368 0.851193 5.201423
0.561196 0.851074 5.200697
0.570525 0.851706 5.204559
0.579408 0.851663 5.204299
0.588509 0.851939 5.205984
0.597497 0.852044 5.206626
0.606360 0.851971 5.206176
0.615628 0.852459 5.209163
0.624563 0.852480 5.209290
0.633891 0.853029 5.212646
0.642848 0.853072 5.212906
0.652188 0.853614 5.216217
0.661527 0.854139 5.219429
0.670318 0.853953 5.218290
0.679154 0.853828 5.217529
0.688337 0.854138 5.219419
0.697408 0.854301 5.220418
0.706801 0.854850 5.223770
0.715586 0.854659 5.222605
0.724452 0.854569 5.222053
0.733843 0.855092 5.225251
0.742709 0.854999 5.224683
0.751629 0.854969 5.224499
0.760868 0.855299 5.226516
0.769627 0.855087 5.225218
0.778436 0.854936 5.224297
0.787228 0.854769 5.223275
0.795975 0.854558 5.221987
0.805376 0.855045 5.224965
0.813334 0.854007 5.218623
0.822146 0.853879 5.217835
-0.810021 0.823657 4.980586
-0.800963 0.823113 4.977298
-0.792652 0.823333 4.978626
-0.784326 0.823542 4.979887
-0.776019 0.823776 4.981304
-0.768465 0.824823 4.987633
-0.760812 0.825786 4.993459
-0.752494 0.826040 4.994995
-0.744844 0.827043 5.001059
-0.736467 0.827253 5.002328
-0.728742 0.828208 5.008101
-0.720392 0.828467 5.009671
-0.712047 0.828738 5.011308
-0.704210 0.829615 5.016611
-0.695814 0.829846 5.018009
-0.687383 0.830040 5.019182
-0.678934 0.830219 5.020263
-0.671100 0.831163 5.025970
-0.662243 0.830848 5.024065
-0.653577 0.830767 5.023581
-0.645117 0.830950 5.024684
-0.636602 0.831065 5.025380
-0.628113 0.831219 5.026314
-0.619080 0.830646 5.022849
-0.610564 0.830762 5.023548
-0.602081 0.830926 5.024540
-0.593595 0.831090 5.025532
-0.585102 0.831250 5.026500
-0.576605 0.831408 5.027454
-0.568103 0.831564 5.028395
-0.559596 0.831718 5.029330
-0.551116 0.831916 5.030527
-0.543063 0.832777 5.035733
-0.534571 0.832981 5.036964
-0.526019 0.833096 5.037661
-0.517157 0.832716 5.035362
-0.508878 0.833276 5.038753
-0.496004 0.826205 4.995991
-0.436033 0.739055 4.469005
-0.420211 0.724962 4.383783
