ply
format ascii 1.0
comment generated by convert_depth_to_ply.py
element vertex 1480
property float x
property float y
property float z
end_header
-33.600707 -75.590185 150.266678
-33.100801 -75.634351 150.354477
-32.496159 -75.436792 149.961746
-31.996101 -75.479546 150.046738
-31.495190 -75.521663 150.130463
-30.972496 -75.512083 150.111420
-30.393321 -75.362129 149.813324
-29.850357 -75.298320 149.686478
-29.281738 -75.166404 149.424240
-28.753813 -75.136093 149.363983
-28.251948 -75.174011 149.439362
-27.749709 -75.212329 149.515533
-27.227480 -75.196893 149.484848
-26.707467 -75.187098 149.465378
-26.117377 -74.975746 149.045227
-25.536756 -74.783621 148.663300
-25.029709 -74.803486 148.702789
-24.526697 -74.836499 148.768417
-24.023380 -74.869973 148.834961
-23.519031 -74.901628 148.897888
-22.998085 -74.880658 148.856201
-22.493099 -74.911883 148.918274
-21.987207 -74.941481 148.977112
-21.480713 -74.970396 149.034592
-20.892136 -74.707216 148.511414
-20.386447 -74.734642 148.565933
-19.880202 -74.761392 148.619110
-19.373607 -74.788211 148.672424
-18.866311 -74.813710 148.723114
-18.358502 -74.838549 148.772491
-17.850206 -74.862773 148.820648
-17.341451 -74.886453 148.867722
-16.805182 -74.789132 148.674255
-16.322412 -74.931272 148.956818
-15.761551 -74.712505 148.521927
-15.252503 -74.732884 148.562439
-14.743108 -74.752918 148.602264
-14.233277 -74.772107 148.640411
-13.723032 -74.790475 148.676926
-13.212446 -74.808344 148.712448
-12.701476 -74.825400 148.746353
-12.190131 -74.841588 148.778534
-11.678484 -74.857270 148.809708
-11.166475 -74.871961 148.838913
-10.654196 -74.886185 148.867188
-10.141605 -74.899540 148.893738
-9.734207 -75.732732 150.550049
-9.259175 -76.104094 151.288284
-8.730806 -76.055283 151.191254
-8.176795 -75.762667 150.609558
-7.634230 -75.543539 150.173950
-7.116170 -75.552612 150.191986
-6.597919 -75.560924 150.208511
-6.079494 -75.568500 150.223572
-5.564873 -75.629178 150.344193
-5.054284 -75.762813 150.609848
-4.523334 -75.586853 150.260056
-4.017246 -75.834612 150.752579
-3.485301 -75.595358 150.276962
-2.966153 -75.598497 150.283203
-2.446228 -75.578932 150.244308
-1.919555 -75.284197 149.658401
-1.397408 -75.015092 149.123444
-0.881809 -74.988319 149.070221
-0.366582 -74.962528 149.018951
0.147761 -74.668968 148.435379
0.660651 -74.666910 148.431290
1.173500 -74.664124 148.425751
1.686294 -74.660601 148.418747
2.199019 -74.656356 148.410309
2.711658 -74.651352 148.400360
3.224197 -74.645633 148.388992
3.736621 -74.639170 148.376144
4.248915 -74.631993 148.361877
4.761064 -74.624080 148.346146
5.273047 -74.615375 148.328842
5.784860 -74.606003 148.310211
6.296484 -74.595925 148.290176
6.807901 -74.585094 148.268646
7.319089 -74.573442 148.245483
7.830050 -74.561161 148.221069
8.340749 -74.548043 148.194992
8.856037 -74.575085 148.248749
9.392817 -74.770250 148.636719
9.884622 -74.605727 148.309662
10.421430 -74.780351 148.656799
10.932644 -74.763533 148.623367
11.443547 -74.746201 148.588913
11.954080 -74.728040 148.552811
12.472892 -74.761000 148.618332
12.983066 -74.741627 148.579819
13.492781 -74.721186 148.539185
14.002118 -74.700223 148.497513
14.511024 -74.678524 148.454376
15.067760 -74.896056 148.886810
15.577400 -74.872852 148.840683
16.149544 -75.141957 149.375641
16.660179 -75.117065 149.326157
17.182350 -75.144114 149.379929
17.692277 -75.117602 149.327225
18.201755 -75.090744 149.273834
18.710762 -75.063472 149.219620
19.219223 -75.035532 149.164078
19.726848 -75.005873 149.105118
20.299234 -75.217694 149.526199
20.807581 -75.187597 149.466370
21.315010 -75.155720 149.403000
21.907527 -75.418270 149.924927
22.431445 -75.437989 149.964127
22.939381 -75.404285 149.897125
23.446871 -75.370634 149.830231
23.960627 -75.358146 149.805405
24.538075 -75.542265 150.171417
25.128436 -75.757686 150.599655
25.651443 -75.765430 150.615051
26.176753 -75.779531 150.643082
26.683922 -75.741589 150.567657
27.190336 -75.702996 150.490936
27.784891 -75.906649 150.895782
28.389003 -76.128426 151.336655
28.917142 -76.142135 151.363907
29.436462 -76.132548 151.344849
29.942486 -76.089510 151.259293
30.545939 -76.291283 151.660400
31.125104 -76.426615 151.929428
31.692629 -76.529348 152.133652
32.209436 -76.508254 152.091721
32.715420 -76.462545 152.000854
33.326633 -76.660335 152.394043
33.964822 -76.913060 152.896439
34.495616 -76.918571 152.907394
35.001069 -76.868264 152.807388
35.620529 -77.066107 153.200684
36.241183 -77.260704 153.587524
36.795635 -77.310589 153.686691
37.305746 -77.267213 153.600464
37.810998 -77.215133 153.496933
38.555091 -77.645491 154.352448
39.122244 -77.712631 154.485916
39.628119 -77.657880 154.377075
40.267626 -77.862977 154.784790
40.928408 -78.103298 155.262527
41.461597 -78.097065 155.250137
42.125267 -78.333625 155.720398
42.780460 -78.548655 156.147858
43.338812 -78.582735 156.215607
44.129543 -79.032145 157.108994
44.669349 -79.026710 157.098190
45.322617 -79.219725 157.481888
46.021169 -79.486375 158.011963
46.607207 -79.554720 158.147827
47.284876 -79.776074 158.587860
47.937945 -79.951328 158.936249
48.603658 -80.143460 159.318192
49.306183 -80.391311 159.810898
49.937284 -80.518507 160.063751
50.741695 -80.919298 160.860489
51.269893 -80.875692 160.773804
51.967712 -81.097721 161.215179
52.686419 -81.347292 161.711304
53.330887 -81.478202 161.971542
54.049934 -81.719153 162.450531
54.658934 -81.790476 162.592316
55.312963 -81.927044 162.863800
56.109963 -82.270489 163.546539
56.630859 -82.206289 163.418915
57.307861 -82.367726 163.739838
58.066896 -82.642757 164.286575
58.621315 -82.624066 164.249420
59.133935 -82.547385 164.096985
-59.802123 -79.540605 159.198135
-59.493680 -79.865005 159.847412
-58.809726 -79.686669 159.490479
-58.307611 -79.753682 159.624603
-57.738981 -79.730125 159.577454
-56.867115 -79.283348 158.683243
-56.319675 -79.284583 158.685715
-55.572918 -79.002495 158.121124
-54.931476 -78.866006 157.847946
-54.140194 -78.509495 157.134399
-53.525721 -78.404752 156.924759
-52.989723 -78.413992 156.943253
-52.221274 -78.075884 156.266541
-51.613638 -77.973657 156.061935
-50.982478 -77.833356 155.781128
-50.241898 -77.521231 155.156418
-49.727026 -77.554386 155.222778
-49.021860 -77.288247 154.690109
-48.373341 -77.106534 154.326416
-47.858615 -77.136412 154.386215
-47.066195 -76.714344 153.541458
-46.522677 -76.692967 153.498672
-45.993805 -76.695521 153.503784
-45.320998 -76.455318 153.023026
-44.684823 -76.271973 152.656067
-44.192545 -76.332796 152.777802
-43.518551 -76.077422 152.266678
-42.864896 -75.851788 151.815079
-42.371189 -75.907106 151.925797
-41.846540 -75.907686 151.926956
-41.220288 -75.721635 151.554581
-40.690838 -75.710908 151.533112
-40.073313 -75.533891 151.178818
-39.578139 -75.585863 151.282837
-39.052879 -75.580999 151.273102
-38.429852 -75.384221 150.879257
-37.887418 -75.342298 150.795349
-37.295661 -75.199756 150.510056
-36.799342 -75.248334 150.607285
-36.302299 -75.296807 150.704300
-35.778005 -75.289343 150.689362
-35.158573 -75.078499 150.267365
-34.644126 -75.088883 150.288147
-34.038040 -74.897937 149.905975
-33.539977 -74.942460 149.995087
-33.041030 -74.986373 150.082977
-32.517661 -74.975380 150.060974
-31.948761 -74.857348 149.824738
-31.393255 -74.767327 149.644562
-30.796230 -74.573751 149.257126
-30.296893 -74.614165 149.338013
-29.796738 -74.653930 149.417603
-29.274382 -74.638492 149.386703
-28.773148 -74.677320 149.464417
-28.180522 -74.476037 149.061554
-27.589324 -74.271102 148.651382
-27.072805 -74.263242 148.635651
-26.571931 -74.298822 148.706863
-26.070719 -74.334844 148.778961
-25.568438 -74.369205 148.847733
-25.047240 -74.348826 148.806946
-24.542676 -74.378002 148.865341
-23.946106 -74.123627 148.356216
-23.443404 -74.155045 148.419098
-22.932385 -74.160968 148.430954
-22.365576 -73.982617 148.073990
-21.862576 -74.011931 148.132660
-21.358978 -74.040573 148.189987
-20.855067 -74.069513 148.247910
-20.350297 -74.096784 148.302490
-19.844968 -74.123375 148.355713
-19.339293 -74.150051 148.409103
-18.832915 -74.175408 148.459854
-18.326024 -74.200109 148.509293
-17.818642 -74.224192 148.557495
-17.310802 -74.247735 148.604614
-16.802431 -74.270370 148.649918
-16.293591 -74.292296 148.693802
-15.777700 -74.282453 148.674103
-15.270007 -74.311843 148.732925
-14.753468 -74.298730 148.706680
-14.243290 -74.317866 148.744980
-13.739816 -74.374717 148.858765
-13.224418 -74.368938 148.847198
-12.710436 -74.370981 148.851288
-12.191550 -74.343284 148.795853
-11.656189 -74.208266 148.525620
-11.173218 -74.409710 148.928802
-10.562245 -73.736994 147.582382
-9.996552 -73.328176 146.764145
-9.655036 -74.607951 149.325577
-9.272400 -75.696552 151.504379
-8.709151 -75.352742 150.816254
-8.163940 -75.131172 150.372787
-7.640167 -75.090171 150.290726
-7.126528 -75.150064 150.410599
-6.607523 -75.158343 150.427170
-6.088347 -75.165914 150.442322
-5.569012 -75.172767 150.456039
-5.049533 -75.178866 150.468246
-4.529923 -75.184218 150.478958
-4.010201 -75.188838 150.488205
-3.490380 -75.192711 150.495956
-2.968267 -75.139924 150.390305
-2.440192 -74.881767 149.873611
-1.915458 -74.614653 149.338989
-1.398440 -74.561987 149.233582
-0.877879 -74.148450 148.405899
-0.364512 -74.034467 148.177765
0.147502 -74.033163 148.175156
0.659492 -74.031120 148.171066
1.171443 -74.028353 148.165527
1.683338 -74.024846 148.158508
2.195163 -74.020622 148.150055
2.706903 -74.015651 148.140106
3.218542 -74.009964 148.128723
3.730066 -74.003537 148.115860
4.241460 -73.996401 148.101578
4.752708 -73.988526 148.085815
5.263792 -73.979873 148.068497
5.774705 -73.970564 148.049866
6.285426 -73.960516 148.029755
6.795943 -73.949759 148.008224
7.306230 -73.938171 147.985031
7.816290 -73.925965 147.960602
8.326087 -73.912913 147.934479
8.835646 -73.899388 147.907410
9.344897 -73.884903 147.878418
9.853879 -73.869900 147.848389
10.362530 -73.854019 147.816605
10.870846 -73.837361 147.783264
11.389784 -73.891101 147.890823
11.924140 -74.035961 148.180756
12.433000 -74.017100 148.143005
12.945399 -74.019974 148.148758
13.478132 -74.134468 148.377914
14.011926 -74.246195 148.601532
14.531984 -74.279808 148.668808
15.041133 -74.257272 148.623703
15.549859 -74.234203 148.577530
16.058125 -74.210485 148.530060
16.565856 -74.185837 148.480728
17.127260 -74.395812 148.900986
17.635533 -74.369487 148.848297
18.153207 -74.383171 148.875687
18.723711 -74.606609 149.322891
19.243879 -74.622871 149.355438
19.755147 -74.604673 149.319016
20.263161 -74.575428 149.260483
20.770578 -74.545490 149.200562
21.277079 -74.513797 149.137131
21.783259 -74.482502 149.074493
22.358826 -74.684425 149.478638
22.882565 -74.708021 149.525864
23.462848 -74.911104 149.932327
23.987811 -74.932603 149.975357
24.494221 -74.896466 149.903030
25.000320 -74.860893 149.831833
25.505703 -74.824665 149.759323
26.092283 -75.023341 150.156967
26.701884 -75.279173 150.669006
27.214404 -75.256759 150.624146
27.735003 -75.257109 150.624847
28.240174 -75.216353 150.543274
28.779966 -75.267615 150.645874
29.389214 -75.495475 151.101929
29.962368 -75.624279 151.359726
30.490850 -75.637849 151.386887
30.995860 -75.593715 151.298553
31.599782 -75.788274 151.687958
32.178071 -75.916011 151.943619
32.736872 -75.994406 152.100525
33.266255 -76.003113 152.117950
33.771051 -75.956249 152.024155
34.383485 -76.149207 152.410355
35.023777 -76.397110 152.906525
35.555742 -76.404864 152.922043
36.060677 -76.355156 152.822556
36.661689 -76.507381 153.127228
37.311772 -76.756221 153.625275
37.860797 -76.793105 153.699097
38.368201 -76.745716 153.604248
38.992141 -76.929540 153.972168
39.652188 -77.178694 154.470840
40.187332 -77.181347 154.476151
40.701408 -77.143998 154.401398
41.487625 -77.616749 155.347595
42.024842 -77.617534 155.349167
42.553266 -77.602264 155.318604
43.343795 -78.059409 156.233566
43.909364 -78.105152 156.325119
44.569789 -78.316461 156.748047
45.215308 -78.496817 157.109024
45.794820 -78.559659 157.234802
46.593226 -78.992134 158.100388
47.123011 -78.964452 158.044983
47.861233 -79.282685 158.681915
48.493966 -79.420942 158.958633
49.100049 -79.512946 159.142776
49.827950 -79.797999 159.713303
50.429620 -79.876868 159.871155
51.220070 -80.249801 160.617569
51.847642 -80.362282 160.842697
52.468537 -80.462138 161.042557
53.270567 -80.834759 161.788345
53.794767 -80.782429 161.683609
54.640144 -81.208523 162.536423
55.245039 -81.272166 162.663803
55.899844 -81.407214 162.934097
56.632715 -81.652121 163.424271
57.219012 -81.682951 163.485977
57.900332 -81.847503 163.815323
58.645304 -82.097975 164.316635
59.167449 -82.034698 164.189987
-59.780347 -78.969378 159.140167
-59.332017 -79.104792 159.413055
-58.818885 -79.155538 159.515320
-58.091540 -78.916239 159.033081
-57.428325 -78.760320 158.718872
-56.817338 -78.673714 158.544342
-56.001165 -78.298539 157.788284
-55.464294 -78.310336 157.812057
-54.707305 -78.008494 157.203781
-54.075665 -77.881129 156.947113
-53.480248 -77.803881 156.791443
-52.682623 -77.427866 156.033691
-52.171526 -77.469541 156.117676
-51.453115 -77.201030 155.576569
-50.799947 -77.025773 155.223389
-50.187492 -76.909167 154.988403
-49.494177 -76.664795 154.495941
-48.929133 -76.615950 154.397507
-48.283581 -76.438573 154.040054
-47.569014 -76.146763 153.451996
-47.051401 -76.167207 153.493195
-46.418798 -75.999848 153.155930
-45.766872 -75.796628 152.746399
-45.235828 -75.791199 152.735458
-44.678678 -75.741384 152.635071
-43.928593 -75.359402 151.865295
-43.413367 -75.375954 151.898651
-42.889811 -75.378271 151.903320
-42.270247 -75.209821 151.563858
-41.609591 -74.963117 151.066696
-41.111712 -75.007124 151.155380
-40.618150 -75.060241 151.262421
-40.093597 -75.056727 151.255341
-39.443865 -74.815687 150.769592
-38.934525 -74.838046 150.814651
-38.334415 -74.684172 150.504562
-37.839664 -74.734154 150.605286
-37.314862 -74.725348 150.587540
-36.781875 -74.699672 150.535797
-36.179512 -74.530344 150.194565
-35.572653 -74.346690 149.824463
-35.076756 -74.392946 149.917679
-34.580215 -74.439202 150.010895
-34.055907 -74.426186 149.984665
-33.498644 -74.339633 149.810242
-32.929593 -74.223792 149.576797
-32.331332 -74.037367 149.201111
-31.833909 -74.079557 149.286133
-31.335636 -74.121126 149.369904
-30.837114 -74.163490 149.455276
-30.313114 -74.144977 149.417969
-29.726131 -73.969099 149.063538
-29.132932 -73.771278 148.664886
-28.608568 -73.743793 148.609497
-28.109316 -73.781213 148.684906
-27.609695 -73.819041 148.761139
-27.090876 -73.806003 148.734863
-26.586411 -73.832322 148.787903
-25.985127 -73.585504 148.290512
-25.482702 -73.614338 148.348618
-24.905649 -73.424346 147.965744
-24.403322 -73.451309 148.020081
-23.902591 -73.484330 148.086624
-23.400833 -73.515571 148.149582
-22.896537 -73.540058 148.198929
-22.377982 -73.518820 148.156128
-21.874724 -73.548016 148.214966
-21.370871 -73.576570 148.272507
-20.866699 -73.605395 148.330597
-20.344545 -73.570649 148.260574
-19.794351 -73.430086 147.977310
-19.289983 -73.456579 148.030701
-18.779421 -73.460282 148.038162
-18.264847 -73.448061 148.013535
-17.759174 -73.471958 148.061691
-17.253045 -73.495332 148.108795
-16.746383 -73.517797 148.154068
-16.239255 -73.539566 148.197937
-15.731712 -73.560813 148.240753
-15.223652 -73.580992 148.281418
-14.669497 -73.372025 147.860306
-14.177073 -73.467877 148.053467
-13.684220 -73.568597 148.256439
-13.146531 -73.426731 147.970551
-12.638127 -73.443563 148.004471
-12.129349 -73.459555 148.036697
-11.557453 -73.077861 147.267502
-11.167757 -73.866115 148.856003
-10.026347 -69.518427 140.094482
-9.538379 -69.490139 140.037476
-9.220935 -70.767554 142.611740
-9.276729 -75.215402 151.575104
-8.694038 -74.708970 150.554535
-8.136789 -74.370616 149.872681
-7.619917 -74.380392 149.892380
-7.103525 -74.396626 149.925095
-6.590779 -74.456602 150.045959
-6.072919 -74.464121 150.061111
-5.572225 -74.703162 150.542831
-5.052447 -74.709242 150.555084
-4.533569 -74.731572 150.600082
-4.015698 -74.778426 150.694504
-3.488569 -74.641149 150.417862
-2.960604 -74.434818 150.002060
-2.439187 -74.340443 149.811874
-1.918084 -74.207399 149.543762
-1.392698 -73.749381 148.620758
-0.877379 -73.600830 148.321396
-0.363301 -73.285214 147.685364
0.147012 -73.283912 147.682739
0.657301 -73.281890 147.678665
1.167549 -73.279142 147.673126
1.682636 -73.489350 148.096741
2.196430 -73.558238 148.235565
2.708465 -73.553294 148.225601
3.210388 -73.318985 147.753418
3.720615 -73.312609 147.740570
4.232767 -73.341117 147.798019
4.740663 -73.297693 147.710510
5.250450 -73.289091 147.693176
5.772695 -73.440512 147.998322
6.283593 -73.434682 147.986572
6.799849 -73.487631 148.093277
7.287700 -73.247674 147.609711
7.820775 -73.463924 148.045502
8.330862 -73.450931 148.019318
8.840708 -73.437445 147.992142
9.350245 -73.423006 147.963043
9.861114 -73.419985 147.956955
10.376671 -73.450439 148.018326
10.885675 -73.433826 147.984848
11.394368 -73.416706 147.950348
11.902689 -73.398761 147.914185
12.410625 -73.380013 147.876404
12.918230 -73.360872 147.837830
13.425382 -73.340708 147.797195
13.932150 -73.320007 147.755478
14.483516 -73.527171 148.172958
14.990955 -73.504804 148.127884
15.510259 -73.540172 148.199158
16.067165 -73.745867 148.613678
16.575164 -73.721297 148.564163
17.096306 -73.754901 148.631882
17.603646 -73.728740 148.579163
18.110536 -73.702231 148.525742
18.616954 -73.675313 148.471497
19.135047 -73.694803 148.510773
19.678535 -73.808524 148.739944
20.195365 -73.819019 148.761093
20.765671 -74.019603 149.165314
21.288844 -74.046536 149.219589
21.812561 -74.074044 149.275024
22.318766 -74.042182 149.210815
22.823959 -74.008480 149.142899
23.333009 -73.988498 149.102631
23.907362 -74.171978 149.472382
24.440767 -74.223345 149.575897
25.013928 -74.390818 149.913391
25.539791 -74.413685 149.959473
26.044628 -74.375599 149.882721
26.549164 -74.338156 149.807266
27.077137 -74.366513 149.864410
27.676296 -74.585648 150.306015
28.255316 -74.743437 150.623993
28.783074 -74.762366 150.662140
29.287376 -74.720782 150.578339
29.832620 -74.783279 150.704285
30.399731 -74.897508 150.934479
31.012246 -75.117862 151.378540
31.541605 -75.132824 151.408691
32.045798 -75.088332 151.319031
32.549106 -75.043227 151.228134
33.237881 -75.420393 151.988205
33.806862 -75.518228 152.185364
34.319905 -75.490023 152.128525
34.822663 -75.440390 152.028503
35.435383 -75.626914 152.404388
36.079209 -75.873391 152.901093
36.607131 -75.872528 152.899353
37.115058 -75.830838 152.815338
37.734903 -76.015771 153.188019
38.380801 -76.247347 153.654694
38.921756 -76.266966 153.694229
39.423940 -76.211108 153.581665
40.055847 -76.404174 153.970734
40.744511 -76.699020 154.564911
41.262282 -76.668702 154.503815
41.904587 -76.867598 154.904633
42.584828 -77.130188 155.433807
43.087231 -77.068145 155.308777
43.767353 -77.321596 155.819534
44.438947 -77.554004 156.287888
45.084264 -77.735523 156.653687
45.780461 -77.999423 157.185501
46.311318 -77.978737 157.143814
47.035618 -78.280473 157.751877
47.689682 -78.459743 158.113144
48.266930 -78.510004 158.214432
49.065075 -78.914422 159.029419
49.675443 -79.011212 159.224472
50.453282 -79.369335 159.946167
51.003273 -79.365148 159.937729
51.797118 -79.736439 160.685959
52.410243 -79.824605 160.863632
52.934227 -79.776577 160.766846
53.762636 -80.183576 161.587036
54.373453 -80.261020 161.743103
55.054631 -80.439692 162.103165
55.815440 -80.729942 162.688080
56.334290 -80.667929 162.563110
57.021414 -80.845722 162.921402
57.799053 -81.147118 163.528778
58.313495 -81.076738 163.386948
58.823146 -81.001111 163.234543
-59.482690 -78.036610 158.347778
-59.163033 -78.337846 158.959030
-58.496186 -78.180704 158.640167
-57.996408 -78.245991 158.772644
-57.208871 -77.920587 158.112350
-56.556512 -77.774800 157.816528
-55.842402 -77.540431 157.340958
-55.144751 -77.324530 156.902863
-54.605133 -77.328139 156.910187
-53.849582 -77.022963 156.290939
-53.242266 -76.925777 156.093735
-52.628383 -76.817018 155.873047
-51.846926 -76.458888 155.146347
-51.357575 -76.528543 155.287689
-50.728491 -76.389254 155.005051
-49.976921 -76.060579 154.338120
-49.462393 -76.089462 154.396729
-48.824018 -75.926380 154.065811
-48.118817 -75.654637 153.514404
-47.604069 -75.679610 153.565079
-46.912730 -75.421245 153.040817
-46.278471 -75.249801 152.692932
-45.758506 -75.262389 152.718475
-45.111957 -75.064641 152.317215
-44.450779 -74.837595 151.856506
-43.961255 -74.897573 151.978210
-43.318087 -74.694072 151.565277
-42.654832 -74.450528 151.071091
-42.149920 -74.480751 151.132416
-41.657870 -74.534743 151.241974
-41.130131 -74.525441 151.223099
-40.477990 -74.287589 150.740463
-39.864640 -74.115657 150.391586
-39.372186 -74.166919 150.495605
-38.846003 -74.155166 150.471756
-38.333649 -74.169852 150.501556
-37.709431 -73.965524 150.086945
-37.102109 -73.789102 149.728958
-36.608493 -73.837025 149.826202
-36.114145 -73.884829 149.923203
-35.589213 -73.870541 149.894211
-35.055282 -73.836875 149.825897
-34.461540 -73.674334 149.496078
-33.862061 -73.494393 149.130951
-33.366679 -73.538316 149.220078
-32.870417 -73.581645 149.307999
-32.346694 -73.563906 149.272003
-31.849081 -73.605934 149.357285
-31.228390 -73.360217 148.858688
-30.673806 -73.264167 148.663788
-30.140898 -73.217499 148.569092
-29.643407 -73.256737 148.648712
-29.145493 -73.296299 148.728989
-28.628572 -73.288621 148.713409
-28.055977 -73.135533 148.402771
-27.515474 -73.061959 148.253479
-26.946729 -72.909179 147.943466
-26.435617 -72.909443 147.944000
-25.937047 -72.944989 148.016129
-25.437401 -72.978880 148.084900
-24.916051 -72.950613 148.027542
-24.415415 -72.983084 148.093430
-23.840461 -72.790036 147.701706
-23.321205 -72.762318 147.645462
-22.820578 -72.792780 147.707275
-22.310052 -72.792344 147.706390
-21.750890 -72.629480 147.375916
-21.249906 -72.657732 147.433243
-20.748612 -72.686285 147.491180
-20.246459 -72.713191 147.545776
-19.743749 -72.739435 147.599030
-19.240687 -72.765739 147.652405
-18.736927 -72.790765 147.703186
-18.232653 -72.815137 147.752640
-17.727886 -72.838892 147.800842
-17.222664 -72.862128 147.847992
-16.716905 -72.884447 147.893280
-16.210685 -72.906096 147.937210
-15.704048 -72.927219 147.980072
-15.196895 -72.947290 148.020798
-14.689388 -72.966999 148.060791
-14.177437 -72.965262 148.057266
-13.673085 -73.003966 148.135803
-13.164383 -73.021548 148.171478
-12.647182 -72.991506 148.110519
-12.088305 -72.708258 147.535767
-11.679735 -73.343929 148.825638
-10.409910 -68.380739 138.754593
-9.847897 -67.812257 137.601059
-9.402912 -68.032827 138.048630
-8.934613 -68.099272 138.183456
-9.205535 -74.125643 150.411850
-8.638301 -73.720295 149.589340
-8.122548 -73.730665 149.610382
-7.606584 -73.740388 149.630112
-7.090406 -73.749307 149.648209
-6.574037 -73.757496 149.664825
-6.057494 -73.764956 149.679962
-5.540795 -73.771723 149.693695
-5.039371 -74.004213 150.165451
-4.520809 -74.009507 150.176193
-4.002133 -74.014072 150.185455
-3.472699 -73.791395 149.733612
-2.955430 -73.794486 149.739883
-2.438093 -73.796840 149.744659
-1.913078 -73.505477 149.153442
-1.388563 -73.025526 148.179550
-0.872097 -72.655356 147.428421
-0.362529 -72.627239 147.371368
0.146683 -72.617930 147.352478
0.656152 -72.651483 147.420563
1.165509 -72.648754 147.415024
1.674810 -72.645287 147.407990
2.184042 -72.641121 147.399536
2.693189 -72.636218 147.389587
3.202235 -72.630608 147.378204
3.711165 -72.624262 147.365326
4.219966 -72.617223 147.351044
4.728621 -72.609455 147.335281
5.237111 -72.600920 147.317963
5.745429 -72.591716 147.299286
6.253558 -72.581827 147.279221
6.761480 -72.571194 147.257645
7.269173 -72.559764 147.234451
7.776640 -72.547725 147.210022
8.283842 -72.534844 147.183884
8.790807 -72.521496 147.156799
9.297463 -72.507201 147.127792
9.803851 -72.492402 147.097763
10.309907 -72.476730 147.065964
10.848830 -72.682728 147.483963
11.355794 -72.665733 147.449478
11.874634 -72.722929 147.565536
12.417002 -72.913578 147.952393
12.924861 -72.894516 147.913712
13.437171 -72.901058 147.926987
13.951014 -72.915128 147.955536
14.458029 -72.893779 147.912216
14.964562 -72.871543 147.867096
15.470672 -72.848780 147.820908
15.976322 -72.825379 147.773422
16.532024 -73.024511 148.177490
17.038283 -72.999846 148.127441
17.558650 -73.035301 148.199387
18.119674 -73.233065 148.600677
18.626331 -73.206257 148.546280
19.148542 -73.240374 148.615509
19.654239 -73.211197 148.556305
20.159614 -73.182336 148.497742
20.664392 -73.152798 148.437805
21.168259 -73.121539 148.374374
21.735595 -73.305819 148.748306
22.242776 -73.283387 148.702789
22.835256 -73.536662 149.216721
23.360001 -73.565440 149.275116
23.864847 -73.531661 149.206573
24.368599 -73.496010 149.134232
24.883924 -73.496017 149.134247
25.452650 -73.650549 149.447815
25.995223 -73.724762 149.598404
26.562063 -73.863563 149.880051
27.088831 -73.887754 149.929138
27.592307 -73.848696 149.849884
28.094803 -73.808503 149.768326
28.684622 -73.995024 150.146805
29.311706 -74.269339 150.703430
29.830055 -74.263376 150.691330
30.333535 -74.221235 150.605820
30.884712 -74.295252 150.756012
31.433483 -74.361126 150.889679
32.060895 -74.607850 151.390320
32.591800 -74.625680 151.426498
33.094094 -74.578470 151.330704
33.666325 -74.687884 151.552719
34.297436 -74.922569 152.028931
34.860651 -75.004091 152.194351
35.371267 -74.971704 152.128632
35.873457 -74.922667 152.029129
36.485606 -75.101383 152.391769
37.118004 -75.316103 152.827469
37.663502 -75.350942 152.898163
38.168466 -75.304846 152.804626
38.788237 -75.483426 153.166992
39.441625 -75.721736 153.650558
39.977681 -75.731452 153.670273
40.488634 -75.693981 153.594238
41.154024 -75.942465 154.098450
41.805136 -76.158592 154.537003
42.437432 -76.335420 154.895813
43.113503 -76.585604 155.403473
43.646425 -76.578475 155.389008
44.284881 -76.754431 155.746048
44.974970 -77.014578 156.273926
45.552814 -77.078625 156.403885
46.331109 -77.476370 157.210968
46.875154 -77.477716 157.213699
47.604645 -77.782035 157.831207
48.257606 -77.955832 158.183868
48.838791 -78.011088 158.295990
49.635983 -78.406329 159.097992
50.163319 -78.371309 159.026932
50.944405 -78.729191 159.753128
51.573387 -78.846861 159.991898
52.187390 -78.939377 160.179626
52.955720 -79.260939 160.832123
53.509524 -79.258067 160.826294
54.344866 -79.667979 161.658066
54.951607 -79.737838 161.799820
55.598187 -79.863516 162.054840
56.356525 -80.145622 162.627274
56.914327 -80.139786 162.615433
57.586551 -80.293604 162.927551
58.328803 -80.541141 163.429840
58.846246 -80.476485 163.298645
-59.270770 -77.220946 157.783630
-59.059405 -77.659933 158.680603
-58.450859 -77.579983 158.517242
-57.620912 -77.201880 157.744675
-57.121264 -77.263326 157.870224
-56.334205 -76.933450 157.196198
-55.702990 -76.812053 156.948151
-55.112713 -76.745276 156.811707
-54.412637 -76.522758 156.357040
-53.786877 -76.401339 156.108948
-53.053410 -76.122916 155.540054
-52.403275 -75.959588 155.206329
-51.893074 -75.997816 155.284439
-51.175741 -75.730326 154.737885
-50.531243 -75.566109 154.402344
-50.017348 -75.595779 154.462967
-49.230541 -75.209163 153.673004
-48.670938 -75.164998 153.582764
-48.136610 -75.159322 153.571167
-47.371101 -74.788538 152.813553
-46.828336 -74.765022 152.765503
-46.267252 -74.711388 152.655914
-45.487934 -74.300054 151.815445
-44.998217 -74.357675 151.933182
-44.475868 -74.362096 151.942215
-43.813394 -74.129541 151.467041
-43.204007 -73.982269 151.166122
-42.695416 -74.006106 151.214828
-42.166342 -73.994591 151.191299
-41.511715 -73.759698 150.711349
-40.896868 -73.590418 150.365463
-40.406023 -73.642782 150.472458
-39.880474 -73.632439 150.451324
-39.266124 -73.455698 150.090195
-38.728302 -73.419308 150.015839
-38.134769 -73.274880 149.720734
-37.642727 -73.324175 149.821457
-37.150223 -73.373933 149.923126
-36.623410 -73.356377 149.887253
-35.988068 -73.117817 149.399811
-35.387995 -72.945012 149.046722
-34.894782 -72.990626 149.139923
-34.400928 -73.036247 149.233139
-33.876141 -73.016584 149.192963
-33.335282 -72.961135 149.079666
-32.771043 -72.851971 148.856613
-32.211093 -72.749012 148.646240
-31.669361 -72.684528 148.514481
-31.173751 -72.725518 148.598236
-30.677899 -72.767308 148.683624
-30.153751 -72.742261 148.632446
-29.638188 -72.737415 148.622543
-29.044324 -72.536844 148.212723
-28.461179 -72.356325 147.843872
-27.964578 -72.393246 147.919312
-27.467602 -72.430555 147.995544
-26.969564 -72.466423 148.068832
-26.447145 -72.436903 148.008514
-25.870247 -72.254061 147.634918
-25.350635 -72.227079 147.579788
-24.850727 -72.256279 147.639450
-24.278099 -72.070830 147.260529
-23.779997 -72.103413 147.327103
-23.280864 -72.134225 147.390060
-22.781130 -72.164514 147.451950
-22.281010 -72.194938 147.514114
-21.779982 -72.223771 147.573029
-21.278352 -72.251947 147.630600
-20.776408 -72.280415 147.688766
-20.268723 -72.289839 147.708023
-19.752645 -72.269041 147.665527
-19.249379 -72.295261 147.719101
-18.745406 -72.320181 147.770020
-18.240917 -72.344451 147.819611
-17.735941 -72.368131 147.867996
-17.230501 -72.391267 147.915268
-16.724530 -72.413521 147.960739
-16.161582 -72.182698 147.489105
-15.649981 -72.173640 147.470596
-15.144583 -72.193549 147.511276
-14.594751 -71.995645 147.106903
-14.118348 -72.158756 147.440186
-13.626050 -72.249804 147.626221
-13.119105 -72.267241 147.661850
-12.611778 -72.283910 147.695908
-12.067621 -72.081987 147.283325
-11.426927 -71.260260 145.604309
-10.261310 -66.938563 136.773895
-9.784023 -66.906594 136.708572
-9.315394 -66.933590 136.763733
-8.869100 -67.132532 137.170227
-8.987104 -71.866414 146.842850
-8.642136 -73.243075 149.655746
-8.094652 -72.969402 149.096558
-7.581071 -72.984913 149.128250
-7.094492 -73.281594 149.734451
-6.582966 -73.346997 149.868088
-6.065723 -73.354435 149.883286
-5.548323 -73.361186 149.897079
-5.030777 -73.367190 149.909348
-4.513100 -73.372455 149.920105
-3.995309 -73.376995 149.929382
-3.477420 -73.380804 149.937164
-2.959447 -73.383873 149.943436
-2.435260 -73.201434 149.570663
-1.896770 -72.374987 147.882004
-1.359009 -70.977058 145.025650
-0.859444 -71.106161 145.289444
-0.360333 -71.688284 146.478882
0.145995 -71.777517 146.661209
0.653141 -71.818120 146.744171
1.164452 -72.081039 147.281387
1.676610 -72.220515 147.566376
2.186452 -72.218462 147.562180
2.694449 -72.167740 147.458542
3.203733 -72.162154 147.447128
3.712900 -72.155829 147.434204
4.221937 -72.148817 147.419876
4.730828 -72.141080 147.404068
5.239554 -72.132574 147.386688
5.748108 -72.123419 147.367981
6.256471 -72.113554 147.347824
6.764628 -72.102972 147.326202
7.272553 -72.091576 147.302917
7.780252 -72.079583 147.278412
8.287687 -72.066753 147.252197
8.794882 -72.053453 147.225021
9.303194 -72.050257 147.218491
9.817121 -72.088619 147.296875
10.323856 -72.072989 147.264938
10.830256 -72.056604 147.231461
11.336345 -72.039712 147.196945
11.842063 -72.022013 147.160782
12.347393 -72.003508 147.122971
12.852396 -71.984637 147.084412
13.356942 -71.964743 147.043762
13.902976 -72.161639 147.446075
14.408235 -72.140460 147.402802
14.971378 -72.400654 147.934448
15.477705 -72.377974 147.888107
15.997808 -72.419107 147.972153
16.503585 -72.394851 147.922592
17.008958 -72.370334 147.872498
17.513669 -72.344511 147.819733
18.017933 -72.318359 147.766296
18.564371 -72.458253 148.052139
19.082436 -72.482874 148.102448
19.600806 -72.507339 148.152435
20.160138 -72.678225 148.501602
20.673586 -72.679323 148.503845
21.195120 -72.708104 148.562653
21.700701 -72.682093 148.509506
22.204256 -72.650654 148.445267
22.706806 -72.617422 148.377365
23.279142 -72.803908 148.758408
23.809874 -72.855033 148.862869
24.379235 -73.019698 149.199326
24.886312 -72.994852 149.148560
25.408383 -73.014104 149.187897
25.910551 -72.976534 149.111130
26.432686 -72.995569 149.150024
27.001721 -73.140915 149.447006
27.604133 -73.369520 149.914108
28.131833 -73.394784 149.965729
28.634494 -73.354988 149.884415
29.172895 -73.406538 149.989746
29.766823 -73.593569 150.371902
30.346311 -73.739094 150.669250
30.876262 -73.761371 150.714767
31.378320 -73.717378 150.624878
31.879802 -73.673490 150.535202
32.478207 -73.851403 150.898727
33.072621 -74.014761 151.232513
33.639937 -74.113336 151.433929
34.141684 -74.066647 151.338531
34.719758 -74.184452 151.579239
35.355110 -74.419322 152.059143
35.913920 -74.488556 152.200607
36.421027 -74.450105 152.122040
36.921684 -74.399749 152.019150
37.564919 -74.634081 152.497955
38.183651 -74.813921 152.865417
38.719309 -74.828304 152.894806
39.218934 -74.773603 152.783035
39.877861 -75.020040 153.286575
40.531347 -75.249914 153.756271
41.032615 -75.194892 153.643845
41.680972 -75.407381 154.078018
42.330340 -75.616315 154.504929
42.887664 -75.657672 154.589432
43.672290 -76.094061 155.481094
44.205418 -76.086959 155.466583
44.748694 -76.097287 155.487686
45.536566 -76.518382 156.348099
46.118713 -76.587959 156.490265
46.808024 -76.831828 156.988556
47.438110 -76.974008 157.279068
48.087097 -77.143288 157.624954
48.803455 -77.415646 158.181458
49.410202 -77.510025 158.374298
50.206662 -77.896678 159.164337
50.733155 -77.860631 159.090683
51.419492 -78.068042 159.514481
52.130497 -78.308109 160.005005
52.763980 -78.427908 160.249786
53.562994 -78.788708 160.987000
54.084304 -78.737800 160.882980
54.926643 -79.150538 161.726318
55.525676 -79.207883 161.843491
56.033941 -79.135894 161.696396
56.909911 -79.579504 162.602814
57.489974 -79.604708 162.654312
58.169826 -79.766259 162.984406
58.509921 -79.463283 162.365341
-59.163658 -76.544724 157.498489
-58.840513 -76.833407 158.092484
-58.183018 -76.686819 157.790863
-57.637204 -76.686047 157.789276
-56.898337 -76.425953 157.254105
-56.253542 -76.288419 156.971115
-55.501889 -76.001879 156.381531
-54.850777 -75.848735 156.066422
-54.295225 -75.826006 156.019653
-53.559338 -75.548446 155.448547
-52.959122 -75.458574 155.263626
-52.343626 -75.344867 155.029663
-51.663335 -75.134577 154.596970
-51.085132 -75.069911 154.463913
-50.454664 -74.926267 154.168350
-49.786059 -74.722317 153.748703
-49.198064 -74.636257 153.571625
-48.578816 -74.500391 153.292068
-47.921659 -74.302753 152.885406
-47.349815 -74.234460 152.744888
-46.722028 -74.075932 152.418701
-46.034488 -73.817973 151.887924
-45.514209 -73.825367 151.903137
-44.911186 -73.697155 151.639328
-44.348354 -73.632645 151.506592
-43.730186 -73.473620 151.179382
-43.205799 -73.470223 151.172394
-42.560872 -73.259258 150.738312
-41.928851 -73.065557 150.339752
-41.439540 -73.118803 150.449310
-40.911033 -73.103363 150.417542
-40.299097 -72.936529 150.074265
-39.767231 -72.912154 150.024109
-39.166408 -72.759032 149.709045
-38.675647 -72.809007 149.811874
-38.178286 -72.847747 149.891586
-37.628201 -72.785566 149.763641
-36.994107 -72.556884 149.293106
-36.417789 -72.436651 149.045715
-35.926138 -72.483794 149.142715
-35.423228 -72.509260 149.195114
-34.907274 -72.508385 149.193314
-34.298933 -72.312704 148.790680
-33.786330 -72.315981 148.797424
-33.193518 -72.145032 148.445679
-32.699928 -72.187754 148.533585
-32.206114 -72.231337 148.623260
-31.694412 -72.235564 148.631958
-31.185249 -72.245813 148.653046
-30.569618 -72.005622 148.158829
-30.016417 -71.906806 147.955505
-29.490179 -71.870276 147.880341
-28.994920 -71.909291 147.960617
-28.478678 -71.896728 147.934769
-27.975133 -71.916350 147.975143
-27.375727 -71.685681 147.500519
-26.874627 -71.708567 147.547607
-26.309007 -71.556854 147.235443
-25.803468 -71.565790 147.253830
-25.306457 -71.599213 147.322601
-24.808719 -71.631909 147.389877
-24.310108 -71.663404 147.454681
-23.789211 -71.629143 147.384186
-23.289911 -71.659837 147.447342
-22.761481 -71.600266 147.324768
-22.202820 -71.440700 146.996445
-21.703571 -71.469303 147.055298
-21.203726 -71.497268 147.112839
-20.703562 -71.525507 147.170944
-20.142683 -71.340127 146.789505
-19.642586 -71.366008 146.842758
-19.161259 -71.463266 147.042877
-18.675954 -71.550580 147.222534
-18.139333 -71.440678 146.996399
-17.689595 -71.676486 147.481598
-17.134572 -71.487027 147.091766
-16.631432 -71.509059 147.137100
-16.127824 -71.530409 147.181030
-15.623800 -71.551240 147.223892
-15.119260 -71.571033 147.264618
-14.614367 -71.590477 147.304626
-14.109039 -71.609113 147.342972
-13.603294 -71.626948 147.379669
-13.097204 -71.644286 147.415344
-12.590732 -71.660853 147.449432
-12.063558 -71.556023 147.233734
-11.034679 -68.335023 140.606201
-10.229075 -66.263697 136.344238
-9.757577 -66.261175 136.339050
-9.289074 -66.279774 136.377319
-8.811440 -66.231727 136.278458
-8.647071 -68.665872 141.286957
-8.594103 -72.328877 148.823959
-8.074031 -72.276766 148.716736
-7.567850 -72.350361 148.868164
-7.056883 -72.385608 148.940689
-6.560005 -72.582283 149.345367
-6.044569 -72.589669 149.360565
-5.528974 -72.596358 149.374329
-5.016746 -72.653193 149.491272
-4.497362 -72.607534 149.397324
-3.981379 -72.612050 149.406616
-3.461677 -72.539998 149.258362
-2.949130 -72.618888 149.420685
-2.415706 -72.108109 148.369705
-1.826357 -69.203044 142.392242
-1.321837 -68.555021 141.058868
-0.834016 -68.521939 140.990799
-0.356448 -70.421611 144.899567
0.145554 -71.062493 146.218246
0.652201 -71.215370 146.532806
1.159578 -71.279577 146.664917
1.669657 -71.420255 146.954376
2.179385 -71.483845 147.085220
2.687445 -71.478988 147.075226
3.188032 -71.308550 146.724533
3.692275 -71.255423 146.615219
4.198483 -71.248467 146.600906
4.704545 -71.240807 146.585144
5.210444 -71.232397 146.567841
5.716169 -71.223313 146.549149
6.221706 -71.213554 146.529068
6.727036 -71.203068 146.507492
7.253628 -71.403354 146.919601
7.760002 -71.391437 146.895081
8.266112 -71.378696 146.868866
8.771983 -71.365489 146.841690
9.277544 -71.351347 146.812592
9.782835 -71.336693 146.782440
10.287796 -71.321202 146.750565
10.795163 -71.323063 146.754395
11.307348 -71.355159 146.820435
11.846863 -71.549557 147.220428
12.352391 -71.531136 147.182526
12.857588 -71.512329 147.143829
13.374881 -71.559672 147.241241
13.879712 -71.539315 147.199356
14.384111 -71.518247 147.156006
14.888032 -71.496319 147.110886
15.417394 -71.593985 147.311844
15.941798 -71.663115 147.454086
16.476660 -71.773522 147.681259
17.015715 -71.895015 147.931244
17.520611 -71.869297 147.878326
18.041991 -71.910737 147.963593
18.546441 -71.884277 147.909149
19.050334 -71.857135 147.853302
19.553398 -71.828362 147.794098
20.107427 -71.983508 148.113327
20.619372 -71.984035 148.114410
21.122090 -71.953103 148.050766
21.706480 -72.195274 148.549057
22.212844 -72.172737 148.502686
22.736901 -72.207406 148.574020
23.239769 -72.174740 148.506805
23.741960 -72.141428 148.438263
24.251913 -72.132610 148.420120
24.817368 -72.285821 148.735367
25.418022 -72.533257 149.244492
25.944694 -72.563937 149.307617
26.447189 -72.527117 149.231857
26.948923 -72.489660 149.154785
27.475794 -72.519953 149.217117
28.032595 -72.626674 149.436707
28.645122 -72.871300 149.940048
29.174258 -72.898857 149.996750
29.675554 -72.857106 149.910843
30.176340 -72.815555 149.825348
30.767109 -72.988870 150.181961
31.389722 -73.230730 150.679611
31.921303 -73.255788 150.731171
32.422501 -73.211434 150.639908
32.985418 -73.305644 150.833755
33.542173 -73.383444 150.993835
34.153821 -73.577115 151.392334
34.686519 -73.597427 151.434128
35.186944 -73.549676 151.335876
35.792445 -73.719743 151.685806
36.416906 -73.923389 152.104828
36.964925 -73.968277 152.197189
37.469553 -73.926296 152.110809
38.075258 -74.082139 152.431473
38.581528 -74.042902 152.350739
39.268138 -74.346157 152.974716
39.768213 -74.292882 152.865097
40.389681 -74.464810 153.218857
41.050432 -74.703778 153.710556
41.585633 -74.711082 153.725586
42.210334 -74.876967 154.066910
42.883464 -75.123557 154.574295
43.416744 -75.122104 154.571304
44.093974 -75.366729 155.074646
44.764169 -75.593601 155.541458
45.311071 -75.609353 155.573868
46.011845 -75.878487 156.127640
46.683184 -76.093405 156.569855
47.348356 -76.293462 156.981491
48.002296 -76.471093 157.346985
48.577826 -76.521231 157.450150
49.370714 -76.908856 158.247726
49.897292 -76.877680 158.183578
50.758010 -77.356415 159.168625
51.299437 -77.343497 159.142044
51.990737 -77.554417 159.576035
52.703298 -77.792294 160.065491
53.339963 -77.914366 160.316666
54.062021 -78.157382 160.816696
54.658532 -78.215797 160.936890
55.325149 -78.372345 161.259003
56.095278 -78.670942 161.873398
56.609989 -78.608969 161.745880
57.335551 -78.838132 162.217407
58.070274 -79.075334 162.705475
58.525119 -78.930526 162.407516
-58.946511 -75.729083 156.920425
-58.686442 -76.094940 157.678528
-57.969286 -75.869422 157.211227
-57.312044 -75.718795 156.899109
-56.814556 -75.778369 157.022552
-56.028211 -75.450104 156.342346
-55.393941 -75.322232 156.077377
-54.691072 -75.097650 155.612015
-54.003197 -74.889401 155.180496
-53.498416 -74.933429 155.271729
-52.765520 -74.655599 154.696030
-52.124221 -74.503006 154.379837
-51.614944 -74.537911 154.452164
-50.898710 -74.271554 153.900238
-50.262820 -74.118048 153.582153
-49.724870 -74.107230 153.559738
-49.043369 -73.879931 153.088745
-48.412999 -73.725541 152.768829
-47.896028 -73.742338 152.803635
-47.118745 -73.354257 151.999481
-46.580743 -73.334140 151.957794
-46.060576 -73.341960 151.973999
-45.392161 -73.111185 151.495804
-44.760828 -72.935447 151.131653
-44.272732 -72.991714 151.248245
-43.636671 -72.802464 150.856094
-42.976008 -72.567094 150.368378
-42.470841 -72.591741 150.419449
-41.943677 -72.578935 150.392914
-41.335389 -72.423669 150.071182
-40.801104 -72.395768 150.013367
-40.194084 -72.236429 149.683197
-39.706776 -72.290885 149.796036
-39.167458 -72.250840 149.713058
-38.536091 -72.037650 149.271301
-38.028885 -72.053924 149.305023
-37.445947 -71.925183 149.038254
-36.956145 -71.974240 149.139908
-36.455508 -72.003283 149.200089
-35.906871 -71.936994 149.062729
-35.306372 -71.763363 148.702942
-34.778641 -71.734695 148.643539
-34.221789 -71.644201 148.456024
-33.729855 -71.688929 148.548706
-33.221769 -71.700181 148.572021
-32.710053 -71.703826 148.579575
-32.151272 -71.602772 148.370178
-31.546432 -71.394207 147.938004
-31.011985 -71.340701 147.827133
-30.518797 -71.381909 147.912521
-30.024169 -71.421092 147.993713
-29.499575 -71.389118 147.927460
-28.919679 -71.219824 147.576660
-28.396649 -71.187011 147.508667
-27.837933 -71.061900 147.249420
-27.325609 -71.052761 147.230484
-26.830217 -71.088137 147.303787
-26.333993 -71.122636 147.375275
-25.814230 -71.093667 147.315247
-25.314792 -71.120633 147.371124
-24.721941 -70.880882 146.874329
-24.223545 -70.907569 146.929626
-23.657474 -70.733061 146.568024
-23.160966 -70.763451 146.630997
-22.663851 -70.793304 146.692856
-22.166359 -70.823319 146.755051
-21.667955 -70.851758 146.813980
-21.168951 -70.879549 146.871567
-20.669632 -70.907628 146.929749
-20.169450 -70.934086 146.984573
-19.668706 -70.959881 147.038025
-19.167614 -70.985758 147.091644
-18.665819 -71.010368 147.142639
-18.163506 -71.034329 147.192291
-17.660701 -71.057695 147.240707
-17.157436 -71.080537 147.288040
-16.653638 -71.102504 147.333557
-16.140874 -71.086370 147.300125
-15.629239 -71.074315 147.275146
-15.071551 -70.844976 146.799927
-14.562481 -70.836154 146.781647
-14.058956 -70.854638 146.819946
-13.591981 -71.065611 147.257111
-13.101809 -71.166989 147.467178
-12.557736 -70.971943 147.063019
-12.005929 -70.714894 146.530380
-10.886688 -66.945869 138.720474
-10.179616 -65.480955 135.684982
-9.704722 -65.440196 135.600525
-9.237840 -65.452066 135.625122
-8.770716 -65.463399 135.648605
-8.351568 -65.854315 136.458633
-8.538887 -71.360326 147.867798
-8.030426 -71.382417 147.913574
-7.550479 -71.678193 148.526459
-7.063800 -71.948555 149.086685
-6.549375 -71.956604 149.103363
-6.034775 -71.963946 149.118576
-5.520017 -71.970595 149.132355
-5.005114 -71.976523 149.144638
-4.490080 -71.981715 149.155396
-3.973677 -71.963474 149.117599
-3.451958 -71.829180 148.839325
-2.940332 -71.894630 148.974945
-2.340265 -69.366453 143.736237
-1.797573 -67.634821 140.148071
-1.315174 -67.731236 140.347855
-0.831465 -67.833460 140.559677
-0.350387 -68.738798 142.435654
0.144865 -70.229920 145.525452
0.649771 -70.452669 145.987015
1.158803 -70.732494 146.566849
1.668533 -70.871803 146.855515
2.175856 -70.867701 146.847015
2.683092 -70.862870 146.837006
3.190228 -70.857362 146.825592
3.697247 -70.851110 146.812637
4.200632 -70.785138 146.675934
4.706228 -70.766618 146.637558
5.212304 -70.758223 146.620163
5.718210 -70.749195 146.601456
6.229924 -70.807656 146.722595
6.736082 -70.798930 146.704514
7.241858 -70.787686 146.681213
7.747407 -70.775837 146.656662
8.252691 -70.763171 146.630417
8.757737 -70.750049 146.603226
9.262473 -70.735992 146.574097
9.766937 -70.721426 146.543915
10.271071 -70.706021 146.511993
10.774869 -70.689857 146.478500
11.278356 -70.673200 146.443985
11.781472 -70.655748 146.407822
12.297440 -70.713635 146.527771
12.823970 -70.825278 146.759109
13.333102 -70.835992 146.781311
13.844078 -70.855359 146.821442
14.368136 -70.937944 146.992569
14.893185 -71.019617 147.161804
15.405447 -71.036936 147.197693
15.915751 -71.044403 147.213165
16.418905 -71.020486 147.163605
16.921654 -70.996303 147.113495
17.459222 -71.115354 147.360184
17.977776 -71.152408 147.436966
18.521622 -71.284758 147.711212
19.056789 -71.377506 147.903397
19.559999 -71.348838 147.843994
20.082714 -71.390967 147.931290
20.585503 -71.361931 147.871124
21.087372 -71.331187 147.807419
21.588915 -71.300819 147.744492
22.154388 -71.478118 148.111877
22.656304 -71.446983 148.047363
23.183569 -71.495393 148.147675
23.751874 -71.665542 148.500244
24.274953 -71.694923 148.561127
24.776364 -71.660416 148.489624
25.277058 -71.625276 148.416809
25.851898 -71.797457 148.773590
26.378762 -71.832281 148.845749
26.965206 -72.024911 149.244904
27.485622 -72.037260 149.270493
27.986050 -71.997731 149.188583
28.518097 -72.039506 149.275146
29.069674 -72.128255 149.459045
29.684855 -72.368963 149.957825
30.215586 -72.399067 150.020203
30.715795 -72.356253 149.931488
31.265246 -72.428934 150.082092
31.824909 -72.522514 150.276001
32.432409 -72.720350 150.685944
32.964635 -72.745822 150.738724
33.464588 -72.700387 150.644577
34.034389 -72.805763 150.862930
34.587098 -72.871949 151.000076
35.224491 -73.111936 151.497360
35.732233 -73.079734 151.430634
36.230564 -73.029491 151.326523
36.835824 -73.193144 151.665634
37.480435 -73.429302 152.154984
38.015243 -73.446784 152.191208
38.516282 -73.399435 152.093094
39.126194 -73.558044 152.421753
39.781090 -73.795888 152.914597
40.318361 -73.812155 152.948303
40.829559 -73.780888 152.883514
41.602903 -74.218078 153.789429
42.138479 -74.225420 153.804642
42.660796 -74.209514 153.771683
43.438740 -74.633199 154.649612
43.972118 -74.631498 154.646088
44.654524 -74.879739 155.160477
45.322656 -75.098438 155.613647
45.823718 -75.038422 155.489288
46.658252 -75.519545 156.486237
47.186778 -75.500024 156.445786
47.914902 -75.796690 157.060516
48.566113 -75.966404 157.412186
49.145267 -76.020896 157.525101
49.937723 -76.400531 158.311752
50.463318 -76.368086 158.244522
51.238293 -76.709686 158.952362
51.868286 -76.829289 159.200195
52.479087 -76.918252 159.384537
53.275771 -77.274985 160.123734
53.795463 -77.226744 160.023773
54.627739 -77.623654 160.846222
55.228652 -77.687123 160.977737
55.874129 -77.811388 161.235229
56.599442 -78.043282 161.715744
57.185410 -78.080381 161.792618
57.852192 -78.226037 162.094437
58.364718 -78.162318 161.962402
-58.842282 -75.061424 156.642960
-58.356283 -75.132582 156.791458
-57.868904 -75.203280 156.938995
-57.303193 -75.172556 156.874878
-56.586914 -74.941839 156.393402
-55.949654 -74.812332 156.123138
-55.165421 -74.481866 155.433502
-54.555875 -74.383076 155.227341
-53.954976 -74.294230 155.041931
-53.268217 -74.084191 154.603607
-52.675069 -74.001406 154.430847
-52.058014 -73.882998 154.183746
-51.295474 -73.553527 153.496185
-50.811785 -73.621198 153.637405
-50.180018 -73.473485 153.329147
-49.517663 -73.277352 152.919846
-48.959911 -73.233452 152.828232
-48.393464 -73.175447 152.707184
-47.664357 -72.867495 152.064529
-47.125546 -72.846839 152.021423
-46.500793 -72.691368 151.696976
-45.829565 -72.458873 151.211792
-45.303351 -72.452936 151.199402
-44.780486 -72.452278 151.198029
-44.108714 -72.207836 150.687912
-43.498304 -72.059209 150.377747
