ply
format ascii 1.0
comment generated by convert_depth_to_ply.py
element vertex 1689
property float x
property float y
property float z
end_header
1.144875 0.296558 4.467566
1.151268 0.295900 4.457660
1.163366 0.296708 4.469829
1.177236 0.297951 4.488563
1.187205 0.298197 4.492257
1.196287 0.298217 4.492560
1.205689 0.298316 4.494053
1.215046 0.298402 4.495356
1.225525 0.298761 4.500765
1.235466 0.298985 4.504129
1.245859 0.299313 4.509080
1.256478 0.299692 4.514776
1.267354 0.300125 4.521304
1.278803 0.300687 4.529769
1.290635 0.301330 4.539464
1.303114 0.302115 4.551281
1.315085 0.302771 4.561172
1.326128 0.303207 4.567730
1.337678 0.303751 4.575931
1.349915 0.304443 4.586359
1.362555 0.305216 4.598002
1.377018 0.306384 4.615601
1.392042 0.307661 4.634832
1.397386 0.306795 4.621793
1.413575 0.308307 4.644559
3.943052 0.854371 12.870879
4.290472 0.923608 13.913924
4.280582 0.915530 13.792233
4.304353 0.914709 13.779864
4.289915 0.905831 13.646112
-4.398343 0.926676 13.542101
-4.365168 0.925396 13.523386
-4.340552 0.925925 13.531117
-4.310600 0.925315 13.522205
-4.285921 0.925837 13.529826
-4.261200 0.926356 13.537414
-4.233646 0.926262 13.536038
-4.200673 0.924973 13.517208
-4.176153 0.925541 13.525513
-4.151330 0.926049 13.532936
-4.126467 0.926555 13.540324
-4.101563 0.927058 13.547677
-4.075853 0.927384 13.552447
-4.046223 0.926817 13.544160
-4.017622 0.926480 13.539228
-3.986208 0.925485 13.524684
-3.960159 0.925730 13.528269
-3.928726 0.924712 13.513386
-3.901115 0.924585 13.511533
-3.871037 0.923867 13.501048
-3.845967 0.924344 13.508008
-3.813404 0.923013 13.488559
-3.786051 0.922933 13.487396
-3.756064 0.922205 13.476762
-3.725368 0.921292 13.463415
-3.698541 0.921329 13.463957
-3.666220 0.919988 13.444360
-3.635777 0.919102 13.431411
-3.606578 0.918519 13.422895
-3.572279 0.916619 13.395131
-3.543084 0.916010 13.386231
-3.511033 0.914648 13.366321
-3.483374 0.914418 13.362954
-3.458238 0.914851 13.369288
-3.431169 0.914776 13.368187
-3.401212 0.913923 13.355733
-3.376020 0.914348 13.361938
-3.353153 0.915414 13.377521
-3.332222 0.917030 13.401137
-3.312232 0.918934 13.428954
-3.293397 0.921192 13.461947
-3.266834 0.921307 13.463636
-3.240409 0.921464 13.465926
-3.224792 0.924723 13.513548
-3.219193 0.930933 13.604309
-3.217927 0.938514 13.715093
-3.210991 0.944558 13.803408
-3.205313 0.951079 13.898709
-3.190116 0.954866 13.954048
-3.179986 0.960249 14.032722
-3.184241 0.970112 14.176847
-3.185822 0.979330 14.311554
-3.167950 0.982680 14.360521
-3.154478 0.987470 14.430519
-3.157222 0.997472 14.576683
-3.150200 1.004546 14.680062
-3.161027 1.017499 14.869351
-3.173114 1.031108 15.068225
-3.159669 1.036602 15.148511
-3.111936 1.030845 15.064375
-3.080331 1.030369 15.057425
-3.047284 1.029397 15.043220
-3.001965 1.024219 14.967545
-2.967171 1.022563 14.943349
-2.936376 1.022266 14.939005
-2.898842 1.019592 14.899931
-2.864381 1.017955 14.876007
-2.835015 1.018113 14.878317
-2.809842 1.019796 14.902911
-2.777850 1.019014 14.891482
-2.748551 1.019213 14.894402
-2.719646 1.019565 14.899535
-2.689157 1.019324 14.896018
-2.660044 1.019605 14.900123
-2.631068 1.019946 14.905100
-2.602116 1.020303 14.910329
-2.568141 1.018677 14.886559
-2.539104 1.018994 14.891196
-2.502044 1.016060 14.848325
-2.471336 1.015667 14.842579
-2.442407 1.016004 14.847502
-2.408694 1.014335 14.823103
-2.379764 1.014663 14.827906
-2.350886 1.015022 14.833153
-2.324824 1.016622 14.856530
-2.297205 1.017574 14.870437
-2.268069 1.017869 14.874755
-2.237471 1.017508 14.869474
-2.205297 1.016410 14.853439
-2.174536 1.015943 14.846614
-2.142960 1.015077 14.833948
-2.113812 1.015352 14.837978
-2.084676 1.015642 14.842205
-2.055481 1.015910 14.846129
-2.026268 1.016178 14.850042
-1.997053 1.016452 14.854053
-1.967532 1.016577 14.855870
-1.937256 1.016309 14.851955
-1.906063 1.015544 14.840780
-1.878085 1.016496 14.854687
-1.845743 1.015077 14.833958
-1.814111 1.014010 14.818360
-1.783659 1.013577 14.812037
-1.750969 1.011836 14.786594
-1.721063 1.011672 14.784200
-1.690295 1.010987 14.774184
-1.660703 1.010993 14.774270
-1.630734 1.010766 14.770949
-1.599032 1.009436 14.751517
-1.569136 1.009218 14.748329
-1.537909 1.008119 14.732269
-1.508308 1.008063 14.731460
-1.478491 1.007859 14.728465
-1.446430 1.006084 14.702538
-1.417242 1.006276 14.705342
-1.386239 1.005161 14.689037
-1.356161 1.004682 14.682038
-1.326981 1.004861 14.684664
-1.295695 1.003418 14.663578
-1.266095 1.003245 14.661039
-1.236122 1.002759 14.653949
-1.205768 1.001935 14.641900
-1.175030 1.000742 14.624465
-1.144050 0.999276 14.603036
-1.113559 0.998172 14.586908
-1.083699 0.997588 14.578382
-1.053350 0.996511 14.562633
-1.022990 0.995361 14.545826
-0.993324 0.994839 14.538199
-0.964319 0.994968 14.540081
-0.935304 0.995093 14.541910
-0.906279 0.995215 14.543698
-0.877243 0.995333 14.545428
-0.847465 0.994589 14.534554
-0.817541 0.993614 14.520300
-0.788531 0.993719 14.521834
-0.758530 0.992536 14.504543
-0.729540 0.992634 14.505978
-0.700079 0.992072 14.497768
-0.670224 0.990879 14.480338
-0.640844 0.990312 14.472046
-0.611106 0.989112 14.454512
-0.581891 0.988682 14.448234
-0.551900 0.986818 14.420988
-0.522294 0.985475 14.401365
-0.493146 0.984891 14.392827
-0.463483 0.983142 14.367263
-0.434111 0.981816 14.347892
-0.404710 0.980235 14.324780
-0.375219 0.978177 14.294706
-0.345239 0.974400 14.239515
-0.310485 0.955253 13.959714
-0.272724 0.922146 13.475898
-0.243523 0.913889 13.355236
-0.215463 0.908405 13.275089
-0.187899 0.903763 13.207251
-0.160790 0.900140 13.154304
-0.134083 0.897794 13.120026
-0.107376 0.894304 13.069029
-0.081031 0.892546 13.043335
-0.054789 0.890793 13.017720
-0.028650 0.889057 12.992340
-0.002617 0.888438 12.983302
0.023367 0.887290 12.966525
0.049252 0.885573 12.941431
0.075180 0.885560 12.941242
0.101108 0.885544 12.941001
0.127034 0.885523 12.940705
0.152959 0.885500 12.940360
0.178908 0.885605 12.941903
0.205084 0.886665 12.957387
0.231211 0.887300 12.966670
0.257493 0.888340 12.981871
0.283740 0.889081 12.992690
0.310334 0.890691 13.016218
0.336753 0.891591 13.029376
0.363172 0.892359 13.040602
0.390440 0.894971 13.078773
0.417077 0.895899 13.092331
0.444731 0.898773 13.134324
0.472712 0.901948 13.180731
0.500563 0.904553 13.218800
0.529080 0.908040 13.269751
0.558638 0.912894 13.340691
0.588125 0.917193 13.403517
0.618179 0.921963 13.473227
0.647786 0.925695 13.527760
0.678230 0.930276 13.594702
0.727005 0.958675 14.009709
0.785284 0.997028 14.570197
0.816133 0.999055 14.599810
0.845965 0.999740 14.609824
0.876165 1.000799 14.625296
0.906051 1.001443 14.634710
0.935251 1.001311 14.632780
0.966326 1.003134 14.659429
0.995559 1.002994 14.657376
1.025399 1.003456 14.664129
1.055354 1.004001 14.672097
1.085302 1.004511 14.679544
1.115257 1.005000 14.686696
1.141740 1.002416 14.648925
0.954212 0.816775 11.936035
0.950585 0.793776 11.599937
0.970477 0.791045 11.560027
0.990126 0.788247 11.519151
1.010454 0.786107 11.487869
1.030693 0.783993 11.456982
1.052348 0.783026 11.442841
1.074082 0.782156 11.430139
1.094620 0.780471 11.405511
1.116979 0.780126 11.400474
1.139589 0.779968 11.398152
1.162191 0.779809 11.395835
1.185552 0.780157 11.400913
1.209217 0.780687 11.408670
1.232869 0.781190 11.416015
1.257338 0.782183 11.430522
1.282001 0.783258 11.446235
1.307651 0.784888 11.470062
1.334884 0.787396 11.506705
1.362962 0.790308 11.549265
1.393344 0.794437 11.609599
1.426120 0.799773 11.687575
1.469002 0.810512 11.844518
1.686491 0.915717 13.381937
1.692134 0.904402 13.216589
1.635998 0.860926 12.581242
1.647179 0.853656 12.475006
1.673108 0.854133 12.481971
1.702262 0.856217 12.512439
1.726980 0.856043 12.509888
1.751565 0.855808 12.506454
1.893208 0.911968 13.327150
2.105787 1.000260 14.617418
2.147758 1.006202 14.704250
2.176642 1.005935 14.700348
2.205452 1.005641 14.696056
2.234239 1.005344 14.691723
2.265860 1.006315 14.705903
2.299151 1.007992 14.730412
2.329440 1.008327 14.735309
2.358234 1.008015 14.730748
2.390279 1.009083 14.746361
2.423551 1.010636 14.769060
2.452463 1.010356 14.764969
2.482471 1.010529 14.767493
2.503939 1.007262 14.719754
2.536880 1.008633 14.739788
2.568832 1.009584 14.753681
2.599011 1.009824 14.757192
2.625773 1.008746 14.741436
2.660333 1.010655 14.769330
2.686985 1.009550 14.753183
2.677746 0.995131 14.542474
2.617619 0.962315 14.062907
2.585254 0.940295 13.741115
2.511445 0.903824 13.208143
1.636002 0.582628 8.514310
1.058214 0.372972 5.450469
0.921548 0.321486 4.698069
0.906126 0.312909 4.572738
0.944731 0.322975 4.719837
1.096599 0.371179 5.424266
1.115853 0.373989 5.465336
0.986259 0.327342 4.783653
0.988427 0.324904 4.748028
0.988660 0.321883 4.703874
0.988458 0.318778 4.658503
0.990572 0.316471 4.624794
0.994556 0.314799 4.600360
1.001543 0.314100 4.590139
1.008936 0.313539 4.581944
1.016258 0.312967 4.573581
1.023640 0.312423 4.565634
1.030459 0.311719 4.555337
1.037393 0.311061 4.545730
1.044192 0.310374 4.535696
1.051254 0.309778 4.526976
1.058817 0.309337 4.520536
1.066161 0.308841 4.513283
1.073648 0.308394 4.506753
1.080624 0.307809 4.498205
1.088539 0.307499 4.493673
1.096551 0.307221 4.489612
1.102743 0.306442 4.478226
1.106653 0.305046 4.457832
1.115133 0.304923 4.456028
1.128392 0.306098 4.473197
1.138811 0.306490 4.478924
1.144716 0.305670 4.466947
1.151108 0.304992 4.457043
1.163205 0.305825 4.469210
1.177355 0.307180 4.489019
1.187332 0.307435 4.492734
1.197169 0.307649 4.495873
1.205652 0.307515 4.493915
1.216065 0.307872 4.499129
1.225678 0.308023 4.501327
1.236203 0.308398 4.506816
1.246336 0.308671 4.510807
1.256940 0.309057 4.516436
1.268633 0.309702 4.525866
1.279554 0.310151 4.532429
1.291937 0.310946 4.544042
1.304016 0.311657 4.554431
1.316444 0.312440 4.565885
1.327721 0.312942 4.573216
1.338363 0.313288 4.578276
1.348975 0.313623 4.583163
1.363539 0.314865 4.601322
1.381714 0.316919 4.631340
1.391183 0.316962 4.631970
1.355662 0.306823 4.483793
3.277863 0.736985 10.770015
4.090928 0.913776 13.353578
4.200973 0.932259 13.623683
4.233727 0.933462 13.641266
4.256018 0.932358 13.625128
4.275236 0.930599 13.599418
-4.345639 0.942990 13.379830
-4.312780 0.941669 13.361085
-4.282658 0.940932 13.350638
-4.256147 0.940985 13.351388
-4.231779 0.941515 13.358912
-4.207371 0.942043 13.366403
-4.182283 0.942425 13.371817
-4.149832 0.941142 13.353608
-4.120517 0.940557 13.345319
-4.096024 0.941073 13.352641
-4.071491 0.941587 13.359928
-4.046918 0.942098 13.367182
-4.019953 0.942055 13.366575
-3.987744 0.940775 13.348410
-3.957734 0.940000 13.337408
-3.933098 0.940499 13.344487
-3.907949 0.940881 13.349915
-3.881151 0.940869 13.349743
-3.849380 0.939643 13.332349
-3.824649 0.940130 13.339259
-3.794151 0.939197 13.326015
-3.766346 0.938922 13.322110
-3.735840 0.937964 13.308524
-3.706015 0.937165 13.297187
-3.679031 0.937078 13.295956
-3.648572 0.936098 13.282052
-3.617367 0.934911 13.265211
-3.590642 0.934873 13.264670
-3.558853 0.933506 13.245275
-3.528471 0.932491 13.230863
-3.495499 0.930770 13.206447
-3.465190 0.929737 13.191798
-3.436650 0.929167 13.183710
-3.405953 0.928001 13.167156
-3.378479 0.927701 13.162905
-3.352557 0.927826 13.164678
-3.328833 0.928566 13.175177
-3.304103 0.929035 13.181833
-3.279235 0.929473 13.188042
-3.260652 0.931713 13.219830
-3.235669 0.932147 13.225982
-3.205312 0.931026 13.210084
-3.179339 0.931171 13.212143
-3.148190 0.929790 13.192544
-3.123123 0.930197 13.198320
-3.098072 0.930616 13.204259
-3.076449 0.932080 13.225039
-3.049629 0.931982 13.223639
-3.020222 0.931084 13.210904
-2.993400 0.930975 13.209351
-2.968221 0.931379 13.215083
-2.942990 0.931773 13.220685
-2.917699 0.932156 13.226119
-2.888530 0.931296 13.213909
-2.861502 0.931116 13.211362
-2.836740 0.931677 13.219323
-2.807062 0.930619 13.204313
-2.781700 0.930986 13.209513
-2.757712 0.931823 13.221395
-2.750299 0.938332 13.313748
-2.751714 0.948010 13.451065
-2.755787 0.958804 13.604218
-2.739103 0.962520 13.656938
-2.714673 0.963561 13.671712
-2.698886 0.967723 13.730760
-2.709152 0.981408 13.924934
-2.714981 0.993754 14.100106
-2.731125 1.010174 14.333092
-2.757684 1.030837 14.626276
-2.727274 1.030420 14.620354
-2.699390 1.030958 14.627994
-2.687038 1.037506 14.720894
-2.647517 1.033592 14.665358
-2.619734 1.034224 14.674330
-2.591197 1.034569 14.679228
-2.564208 1.035547 14.693109
-2.534090 1.035270 14.689176
-2.502113 1.034219 14.674253
-2.468709 1.032544 14.650498
-2.435346 1.030847 14.626422
-2.403568 1.029788 14.611396
-2.378169 1.031470 14.635257
-2.345093 1.029822 14.611876
-2.319663 1.031533 14.636148
-2.292549 1.032529 14.650281
-2.266612 1.034088 14.672400
-2.235024 1.033076 14.658036
-2.206326 1.033390 14.662496
-2.174608 1.032279 14.646740
-2.144252 1.031794 14.639845
-2.112994 1.030855 14.626522
-2.083857 1.030938 14.627707
-2.052737 1.030029 14.614814
-2.023989 1.030302 14.618677
-1.995224 1.030573 14.622529
-1.966234 1.030734 14.624817
-1.936493 1.030501 14.621510
-1.907696 1.030771 14.625335
-1.878854 1.031024 14.628929
-1.850004 1.031281 14.632576
-1.821133 1.031534 14.636169
-1.788743 1.029770 14.611139
-1.756443 1.028000 14.586021
-1.727622 1.028241 14.589435
-1.697770 1.027865 14.584106
-1.668207 1.027655 14.581124
-1.636858 1.026317 14.562143
-1.605850 1.025148 14.545556
-1.577037 1.025363 14.548611
-1.548213 1.025579 14.551674
-1.519025 1.025558 14.551370
-1.489619 1.025386 14.548929
-1.459610 1.024783 14.540370
-1.429082 1.023784 14.526198
-1.398344 1.022590 14.509254
-1.368710 1.022170 14.503294
-1.338711 1.021452 14.493118
-1.308507 1.020544 14.480228
-1.279714 1.020719 14.482718
-1.250077 1.020214 14.475551
-1.220067 1.019374 14.463621
-1.190092 1.018522 14.451544
-1.159867 1.017408 14.435740
-1.129220 1.015858 14.413744
-1.100203 1.015732 14.411948
-1.069393 1.013899 14.385942
-1.039899 1.013246 14.376676
-1.010053 1.012203 14.361886
-0.980255 1.011148 14.346918
-0.950894 1.010495 14.337650
-0.922282 1.010622 14.339453
-0.893661 1.010747 14.341216
-0.865030 1.010867 14.342920
-0.836386 1.010981 14.344543
-0.807735 1.011093 14.346134
-0.778015 1.009828 14.328180
-0.748938 1.009330 14.321118
-0.719309 1.008020 14.302535
-0.690332 1.007554 14.295921
-0.660851 1.006278 14.277818
-0.631922 1.005767 14.270557
-0.603378 1.005849 14.271718
-0.573706 1.003965 14.244991
-0.544208 1.002205 14.220016
-0.514880 1.000580 14.196959
-0.485742 0.999154 14.176731
-0.457025 0.998473 14.167074
-0.427337 0.995439 14.124015
-0.398271 0.993526 14.096871
-0.369216 0.991352 14.066030
-0.338733 0.984667 13.971173
-0.303793 0.962654 13.658847
-0.270967 0.943642 13.389082
-0.242348 0.936716 13.290821
-0.214575 0.931754 13.220417
-0.187003 0.926387 13.144261
-0.160027 0.922698 13.091921
-0.133531 0.920873 13.066020
-0.107076 0.918513 13.032534
-0.080697 0.915488 12.989618
-0.054637 0.914930 12.981701
-0.028587 0.913664 12.963732
-0.002608 0.911891 12.938582
0.023302 0.911310 12.930331
0.049145 0.910111 12.913329
0.075017 0.910098 12.913140
0.100888 0.910081 12.912900
0.126758 0.910060 12.912605
0.152626 0.910036 12.912261
0.178735 0.911247 12.929441
0.204634 0.911215 12.928988
0.230711 0.911895 12.938630
0.257077 0.913463 12.960889
0.283418 0.914664 12.977924
0.309663 0.915381 12.988105
0.336243 0.916898 13.009627
0.362781 0.918092 13.026568
0.389252 0.918966 13.038963
0.416609 0.921691 13.077623
0.443994 0.924152 13.112544
0.471229 0.926044 13.139389
0.499259 0.929213 13.184361
0.527706 0.932802 13.235279
0.556597 0.936795 13.291940
0.585820 0.940957 13.350984
0.615761 0.945858 13.420527
0.645118 0.949489 13.472053
0.674825 0.953323 13.526446
0.714077 0.969824 13.760572
0.770433 1.007465 14.294655
0.802407 1.011666 14.354264
0.832506 1.013296 14.377388
0.861207 1.013171 14.375618
0.889897 1.013042 14.373780
0.919344 1.013756 14.383913
0.949914 1.015627 14.410460
0.979720 1.016594 14.424187
1.009717 1.017699 14.439862
1.039249 1.018287 14.448198
1.070124 1.020122 14.474248
1.099692 1.020649 14.481715
1.133061 1.024585 14.537570
1.020642 0.899797 12.766988
0.951916 0.818690 11.616178
0.970326 0.814606 11.558229
0.990254 0.811957 11.520649
1.010297 0.809521 11.486084
1.030256 0.807128 11.452123
1.050953 0.805404 11.427669
1.071793 0.803862 11.405784
1.093248 0.802835 11.391220
1.114627 0.801796 11.376465
1.137189 0.801632 11.374149
1.160201 0.801786 11.376326
1.182979 0.801775 11.376177
1.207155 0.802694 11.389211
1.231395 0.803621 11.402369
1.256446 0.805034 11.422413
1.281574 0.806444 11.442425
1.306788 0.807858 11.462485
1.334678 0.810849 11.504928
1.362129 0.813477 11.542210
1.395432 0.819453 11.627004
1.441054 0.832348 11.809969
1.592333 0.904868 12.838934
1.737141 0.971463 13.783835
1.713619 0.943312 13.384405
1.643903 0.890991 12.642032
1.646926 0.879084 12.473089
1.676081 0.881273 12.504150
1.707381 0.884509 12.550067
1.730349 0.883397 12.534287
1.754719 0.883023 12.528980
1.853774 0.919712 13.049555
2.071332 1.013357 14.378250
2.117041 1.021511 14.493950
2.142019 1.019577 14.466515
2.170371 1.019280 14.462293
2.202970 1.020958 14.486108
2.228319 1.019277 14.462250
2.257942 1.019569 14.466392
2.293754 1.022612 14.509571
2.322196 1.022335 14.505637
2.357010 1.024835 14.541110
2.393240 1.027882 14.584349
2.422123 1.027738 14.582307
2.448009 1.026341 14.562488
2.479740 1.027400 14.577500
2.501781 1.024464 14.535855
2.562456 1.037236 14.717062
2.616696 1.047141 14.857607
2.600998 1.029151 14.602348
2.342582 0.916591 13.005272
2.070502 0.801221 11.368317
1.995798 0.763909 10.838907
1.924965 0.728866 10.341690
1.909069 0.715149 10.147059
1.891947 0.701267 9.950089
1.875740 0.688010 9.761986
1.941196 0.704671 9.998384
1.938249 0.696414 9.881229
1.873627 0.666388 9.455206
1.765916 0.621792 8.822440
1.951406 0.680294 9.652516
1.151518 0.397500 5.640019
0.993120 0.339490 4.816930
0.986513 0.333986 4.738833
0.984258 0.330046 4.682929
0.984071 0.326867 4.637824
0.986744 0.324689 4.606923
0.991833 0.323338 4.587762
0.999013 0.322689 4.578542
1.006963 0.322297 4.572984
1.014906 0.321910 4.567498
1.022091 0.321292 4.558723
1.029456 0.320741 4.550904
1.036781 0.320187 4.543044
1.043853 0.319565 4.534226
1.050933 0.318957 4.525594
1.058489 0.318502 4.519138
1.066003 0.318042 4.512615
1.073489 0.317582 4.506086
1.080464 0.316980 4.497540
1.087890 0.316518 4.490993
1.095977 0.316255 4.487261
1.102580 0.315572 4.477566
1.107396 0.314392 4.460828
1.114753 0.313947 4.454508
1.127125 0.314910 4.468173
1.137532 0.315313 4.473895
1.144548 0.314777 4.466291
1.152064 0.314386 4.460743
1.163777 0.315138 4.471408
1.177183 0.316333 4.488363
1.188079 0.316840 4.495564
1.197679 0.316997 4.497787
1.207125 0.317111 4.499405
1.216716 0.317261 4.501535
1.226924 0.317569 4.505902
1.237165 0.317881 4.510324
1.247173 0.318128 4.513836
1.258641 0.318742 4.522548
1.269538 0.319203 4.529093
1.280960 0.319789 4.537408
1.292878 0.320490 4.547350
1.305459 0.321344 4.559469
1.317217 0.321985 4.568565
1.328496 0.322501 4.575886
1.338610 0.322729 4.579119
1.348397 0.322876 4.581201
1.363343 0.324247 4.600661
1.380072 0.326022 4.625837
1.399491 0.328404 4.659632
2.029568 0.473101 6.712707
3.963206 0.917759 13.021834
4.092143 0.941419 13.357543
4.136599 0.945463 13.414920
4.172548 0.947522 13.444143
4.207415 0.949312 13.469530
4.237821 0.950078 13.480401
-4.279105 0.955549 13.174978
-4.252787 0.955568 13.175227
-4.220646 0.954269 13.157325
-4.196946 0.954875 13.165676
-4.172916 0.955413 13.173092
-4.148459 0.955859 13.179247
-4.118874 0.955122 13.169084
-4.092610 0.955150 13.169475
-4.067900 0.955544 13.174908
-4.036642 0.954395 13.159062
-4.012464 0.954916 13.166243
-3.988247 0.955434 13.173388
-3.963168 0.955751 13.177763
-3.934358 0.955167 13.169707
-3.907980 0.955169 13.169739
-3.883652 0.955676 13.176724
-3.853801 0.954822 13.164942
-3.827647 0.954877 13.165709
-3.797844 0.954017 13.153852
-3.773443 0.954512 13.160667
-3.747013 0.954496 13.160457
-3.713884 0.952762 13.136543
-3.685821 0.952312 13.130337
-3.657908 0.951894 13.124579
-3.626282 0.950497 13.105320
-3.598254 0.950030 13.098877
-3.570219 0.949554 13.092314
-3.541924 0.949001 13.084693
-3.511201 0.947785 13.067924
-3.483052 0.947251 13.060555
-3.451746 0.945843 13.041142
-3.422414 0.944959 13.028954
-3.391501 0.943621 13.010509
-3.365038 0.943510 13.008984
-3.335997 0.942669 12.997390
-3.311503 0.943110 13.003467
-3.280560 0.941707 12.984119
-3.256188 0.942182 12.990675
-3.231681 0.942626 12.996792
-3.207096 0.943054 13.002698
-3.182523 0.943493 13.008746
-3.153428 0.942587 12.996257
-3.128779 0.943006 13.002033
-3.100149 0.942223 12.991231
-3.073457 0.942019 12.988428
-3.049720 0.942727 12.998179
-3.028202 0.944138 13.017634
-2.999994 0.943469 13.008416
-2.974623 0.943689 13.011447
-2.944038 0.942244 12.991527
-2.919274 0.942653 12.997164
-2.890348 0.941713 12.984204
-2.863986 0.941599 12.982633
-2.836517 0.941116 12.975971
-2.808823 0.940548 12.968146
-2.784002 0.940941 12.973562
-2.759124 0.941322 12.978814
-2.729273 0.939998 12.960550
-2.704016 0.940245 12.963961
-2.673850 0.938773 12.943669
-2.648977 0.939150 12.948861
-2.622651 0.939013 12.946979
-2.594815 0.938328 12.937529
-2.564850 0.936851 12.917168
-2.539150 0.936918 12.918089
-2.515334 0.937689 12.928716
-2.494836 0.939725 12.956792
-2.475239 0.942147 12.990191
-2.451204 0.942914 13.000756
-2.427317 0.943754 13.012349
-2.403589 0.944675 13.025047
-2.380578 0.945902 13.041961
-2.367139 0.951001 13.112267
-2.362085 0.959621 13.231117
-2.352387 0.966529 13.326363
-2.336867 0.971176 13.390430
-2.317247 0.974207 13.432222
-2.293524 0.975564 13.450931
-2.283056 0.982658 13.548748
-2.285055 0.995353 13.723790
-2.282631 1.006408 13.876214
-2.278713 1.017069 14.023201
-2.283686 1.032014 14.229258
-2.290214 1.048048 14.450336
-2.268118 1.051226 14.494153
-2.239773 1.051553 14.498662
-2.211273 1.051815 14.502270
-2.178325 1.049939 14.476414
-2.145797 1.048219 14.452688
-2.111729 1.045688 14.417794
-2.083446 1.045992 14.421983
-2.055108 1.046276 14.425901
-2.025263 1.045790 14.419207
-1.994496 1.044808 14.405656
-1.963669 1.043764 14.391267
-1.936773 1.044810 14.405688
-1.908398 1.045078 14.409379
-1.879804 1.045232 14.411502
-1.850613 1.045053 14.409046
-1.822197 1.045314 14.412639
-1.791209 1.044084 14.395679
-1.761857 1.043782 14.391522
-1.732739 1.043612 14.389175
-1.702556 1.042784 14.377761
-1.673412 1.042575 14.374871
-1.642612 1.041308 14.357408
-1.611776 1.039973 14.339003
-1.583392 1.040200 14.342132
-1.554982 1.040419 14.345142
-1.526560 1.040638 14.348161
-1.498118 1.040850 14.351089
-1.468880 1.040508 14.346374
-1.440421 1.040714 14.349221
-1.409934 1.039434 14.331568
-1.380749 1.039080 14.326692
-1.350055 1.037552 14.305620
-1.321241 1.037434 14.303985
-1.290974 1.036144 14.286209
-1.262567 1.036323 14.288666
-1.233494 1.035949 14.283521
-1.203042 1.034373 14.261791
-1.172676 1.032797 14.240050
-1.144326 1.032961 14.242312
-1.115370 1.032572 14.236956
-1.085142 1.030955 14.214665
-1.055716 1.030033 14.201953
-1.026455 1.029226 14.190817
-0.996787 1.027952 14.173255
-0.966916 1.026388 14.151690
-0.938152 1.025941 14.145532
-0.910738 1.026988 14.159958
-0.882941 1.027657 14.169186
-0.853438 1.026318 14.150729
-0.825179 1.026435 14.152331
-0.796911 1.026548 14.153899
-0.767471 1.025105 14.133996
-0.738510 1.024214 14.121719
-0.709563 1.023274 14.108750
-0.681082 1.022955 14.104361
-0.652535 1.022505 14.098151
-0.623205 1.020732 14.073706
-0.594976 1.020681 14.073004
-0.566018 1.019311 14.054110
-0.536784 1.017273 14.026011
-0.507786 1.015483 14.001331
-0.479556 1.015111 13.996199
-0.450127 1.011994 13.953222
-0.421360 1.010053 13.926462
-0.392587 1.007822 13.895707
-0.363411 1.004135 13.844871
-0.333169 0.996652 13.741688
-0.299633 0.977075 13.471769
-0.269293 0.965079 13.306372
-0.241364 0.960037 13.236850
-0.213692 0.954895 13.165957
-0.186218 0.949318 13.089056
-0.159448 0.946092 13.044574
-0.132984 0.943763 13.012464
-0.106702 0.941911 12.986934
-0.080522 0.940055 12.961337
-0.054445 0.938213 12.935945
-0.028510 0.937698 12.928839
-0.002602 0.936330 12.909981
0.023221 0.934548 12.885413
0.049012 0.934044 12.878466
0.074815 0.934030 12.878276
0.100616 0.934013 12.878037
0.126422 0.934037 12.878363
0.152295 0.934461 12.884212
0.178358 0.935764 12.902181
0.204348 0.936397 12.910911
0.230494 0.937524 12.926451
0.256403 0.937560 12.926944
0.282845 0.939355 12.951697
0.309356 0.941061 12.975217
0.335369 0.941105 12.975814
0.362055 0.942895 13.000502
0.388796 0.944577 13.023696
0.415724 0.946475 13.049862
0.442859 0.948589 13.079014
0.470706 0.951910 13.124799
0.498321 0.954434 13.159597
0.526707 0.958107 13.210235
0.555303 0.961791 13.261030
0.584201 0.965638 13.314084
0.613328 0.969512 13.367486
0.643076 0.974002 13.429402
0.672031 0.976978 13.470436
0.707403 0.988694 13.631964
0.755622 1.016827 14.019858
0.788080 1.022492 14.097974
0.817832 1.024377 14.123961
0.846786 1.025170 14.134901
0.875738 1.025909 14.145085
0.904717 1.026632 14.155057
0.935544 1.029345 14.192464
0.964986 1.030419 14.207268
0.995788 1.032841 14.240665
1.025411 1.033940 14.255815
1.054596 1.034550 14.264230
1.084925 1.036221 14.287260
1.118573 1.040893 14.351683
1.063409 0.964759 13.301958
0.951808 0.842397 11.614854
0.970174 0.838159 11.556422
0.991193 0.836357 11.531565
1.010139 0.832928 11.484289
1.030095 0.830465 11.450334
1.050789 0.828692 11.425884
1.071382 0.826916 11.401405
1.092671 0.825742 11.385205
1.113437 0.824227 11.364319
1.135394 0.823637 11.356189
1.159562 0.824643 11.370065
1.182094 0.824469 11.367665
1.206435 0.825540 11.382424
1.229971 0.826030 11.389177
1.256251 0.828311 11.420636
1.281375 0.829762 11.440645
1.307246 0.831638 11.466507
1.334471 0.834295 11.503141
1.361918 0.836999 11.540417
1.400870 0.846564 11.672308
1.493555 0.887754 12.240231
1.645754 0.962417 13.269662
1.718329 0.988882 13.634564
1.711170 0.969351 13.365275
1.653498 0.922248 12.715822
1.647490 0.904953 12.477366
1.676612 0.907184 12.508118
1.708128 0.910624 12.555557
1.728815 0.908276 12.523182
1.749459 0.905973 12.491420
1.845459 0.942207 12.991021
2.031705 1.022869 14.103173
2.098061 1.041787 14.364005
2.123055 1.039933 14.338440
2.152200 1.040133 14.341210
2.181485 1.040396 14.344829
2.204445 1.037675 14.307307
2.232432 1.037359 14.302950
2.271273 1.042030 14.367364
2.303647 1.043655 14.389771
2.317820 1.037096 14.299336
2.351556 1.039344 14.330324
2.365733 1.032997 14.242816
2.392256 1.032128 14.230835
2.149909 0.916643 12.638544
1.947125 0.820519 11.313195
1.900259 0.791555 10.913841
1.805615 0.743574 10.252288
1.776150 0.723212 9.971541
1.787223 0.719626 9.922096
1.804920 0.718756 9.910108
1.815634 0.715155 9.860458
1.818142 0.708434 9.767791
1.817590 0.700677 9.660836
1.817907 0.693415 9.560701
1.834520 0.692455 9.547466
1.883831 0.703729 9.702916
1.914816 0.707997 9.761767
1.896373 0.694088 9.569991
1.865806 0.676065 9.321487
1.903245 0.682796 9.414292
1.035553 0.367863 5.072037
0.984219 0.346229 4.773756
0.979590 0.341284 4.705575
0.978783 0.337752 4.656877
0.979572 0.334833 4.616622
0.983493 0.333028 4.591743
0.988751 0.331705 4.573507
0.996070 0.331092 4.565053
1.004637 0.330902 4.562423
1.012917 0.330620 4.558546
1.020610 0.330154 4.552120
1.028587 0.329787 4.547062
1.035614 0.329125 4.537931
1.043223 0.328658 4.531488
1.050386 0.328059 4.523236
1.058331 0.327713 4.518464
1.065327 0.327082 4.509753
1.072565 0.326534 4.502207
1.080304 0.326147 4.496871
1.087310 0.325547 4.488598
1.095156 0.325207 4.483902
1.102581 0.324747 4.477571
1.108185 0.323764 4.464005
1.115677 0.323343 4.458201
1.126295 0.323827 4.464880
1.137053 0.324344 4.472009
1.143963 0.323764 4.464009
1.151894 0.323479 4.460085
1.164000 0.324362 4.472262
1.177953 0.325743 4.491297
1.189091 0.326330 4.499392
1.198699 0.326492 4.501619
1.207655 0.326474 4.501383
1.217765 0.326767 4.505418
1.227716 0.327013 4.508810
1.237664 0.327255 4.512142
1.248209 0.327650 4.517586
1.259031 0.328111 4.523948
1.269920 0.328583 4.530457
1.281765 0.329294 4.540262
1.294087 0.330117 4.551605
1.306271 0.330893 4.562304
1.317570 0.331436 4.569788
1.328634 0.331912 4.576361
1.338608 0.332112 4.579113
1.348202 0.332215 4.580538
1.364691 0.334005 4.605211
1.375235 0.334325 4.609624
1.371485 0.331189 4.566386
3.922276 0.940883 12.972754
4.013585 0.956448 13.187364
4.051137 0.959083 13.223692
4.089972 0.961985 13.263707
4.122266 0.963321 13.282134
4.156740 0.965147 13.307302
4.181094 0.964614 13.299954
-4.219290 0.968812 12.990813
-4.187473 0.967475 12.972881
-4.163857 0.968028 12.980290
-4.138543 0.968190 12.982467
-4.114846 0.968735 12.989777
-4.091110 0.969278 12.997055
-4.067335 0.969818 13.004300
-4.035656 0.968469 12.986205
-4.006138 0.967624 12.974874
-3.982324 0.968154 12.981990
-3.958470 0.968682 12.989070
-3.934320 0.969144 12.995264
-3.908863 0.969288 12.997195
-3.884168 0.969625 13.001702
-3.853591 0.968487 12.986448
-3.823913 0.967561 12.974038
-3.799920 0.968072 12.980879
-3.775756 0.968545 12.987224
-3.750314 0.968695 12.989232
-3.720266 0.967648 12.975202
-3.693471 0.967440 12.972404
-3.664831 0.966741 12.963036
-3.637716 0.966438 12.958967
-3.606927 0.965147 12.941658
-3.578513 0.964477 12.932683
-3.551030 0.964051 12.926967
-3.520449 0.962771 12.909805
-3.492474 0.962190 12.902015
-3.465435 0.961860 12.897592
-3.434488 0.960433 12.878450
-3.405528 0.959543 12.866525
-3.374774 0.958131 12.847589
-3.350829 0.958645 12.854481
-3.321063 0.957489 12.838978
-3.293236 0.956878 12.830787
-3.265404 0.956256 12.822448
-3.239035 0.956056 12.819766
-3.212358 0.955761 12.815812
-3.186692 0.955765 12.815864
-3.162450 0.956199 12.821685
-3.135873 0.955929 12.818060
-3.108580 0.955434 12.811421
-3.079003 0.954223 12.795185
-3.054796 0.954670 12.801178
-3.030473 0.955088 12.806780
-3.006164 0.955517 12.812538
-2.981812 0.955940 12.818210
-2.956578 0.956086 12.820157
-2.928201 0.955208 12.808393
-2.901508 0.954869 12.803849
-2.871986 0.953585 12.786628
-2.847078 0.953824 12.789826
-2.817104 0.952353 12.770114
-2.789963 0.951823 12.763005
-2.764133 0.951735 12.761815
-2.738428 0.951688 12.761187
-2.709926 0.950659 12.747389
-2.684189 0.950589 12.746456
-2.655800 0.949571 12.732798
-2.631305 0.949938 12.737720
-2.606829 0.950319 12.742828
-2.582292 0.950685 12.747742
-2.557712 0.951043 12.752537
-2.531981 0.950975 12.751633
-2.502465 0.949470 12.731451
-2.477917 0.949839 12.736394
-2.457455 0.951797 12.762657
-2.434558 0.952844 12.776693
-2.409822 0.953186 12.781275
-2.385051 0.953521 12.785767
-2.357228 0.952630 12.773817
-2.327961 0.951129 12.753698
-2.301668 0.950824 12.749600
-2.273799 0.949853 12.736588
-2.244675 0.948330 12.716169
-2.218626 0.948086 12.712897
-2.193870 0.948396 12.717047
-2.169131 0.948720 12.721398
-2.144328 0.949024 12.725469
-2.118481 0.948867 12.723368
-2.094688 0.949638 12.733703
-2.069813 0.949931 12.737631
-2.044953 0.950238 12.741752
-2.021013 0.950987 12.751787
-1.997055 0.951745 12.761958
-1.978016 0.954898 12.804237
-1.967110 0.962112 12.900965
-1.953355 0.968106 12.981338
-1.940143 0.974534 13.067533
-1.923819 0.979554 13.134842
-1.902027 0.981890 13.166171
-1.882712 0.985588 13.215761
-1.886583 1.001704 13.431853
-1.905028 1.026135 13.759453
-1.899207 1.038022 13.918839
-1.885426 1.045847 14.023769
-1.871236 1.053679 14.128782
-1.845590 1.055201 14.149199
-1.821005 1.057387 14.178514
-1.798414 1.060819 14.224531
-1.772139 1.062153 14.242416
-1.740610 1.060330 14.217976
-1.711449 1.059913 14.212381
-1.679627 1.057806 14.184124
-1.651586 1.058049 14.187384
-1.619357 1.055570 14.154148
-1.589225 1.054394 14.138373
-1.561780 1.054991 14.146375
-1.534790 1.055922 14.158865
-1.507557 1.056719 14.169552
-1.480865 1.057932 14.185822
-1.452736 1.058146 14.188693
-1.421810 1.056291 14.163817
-1.392836 1.055840 14.157770
-1.363543 1.055124 14.148159
-1.333183 1.053533 14.126836
-1.302837 1.051886 14.104741
-1.274804 1.052074 14.107262
-1.246475 1.052020 14.106544
-1.215425 1.049615 14.074297
-1.186246 1.048749 14.062686
-1.155382 1.046315 14.030045
-1.126112 1.045239 14.015621
-1.098200 1.045401 14.017791
-1.070272 1.045557 14.019876
-1.040973 1.044344 14.003617
-1.012130 1.043535 13.992764
-0.982575 1.041924 13.971170
-0.954442 1.041771 13.969120
-0.926401 1.041713 13.968339
-0.898790 1.042150 13.974193
-0.871049 1.042459 13.978334
-0.842748 1.042096 13.973471
-0.814842 1.042214 13.975051
-0.786929 1.042329 13.976600
-0.757524 1.040405 13.950802
-0.728562 1.038966 13.931506
-0.700391 1.038584 13.926377
-0.672550 1.038681 13.927677
-0.643693 1.037148 13.907128
-0.615644 1.036838 13.902965
-0.586962 1.035382 13.883443
-0.558725 1.034605 13.873025
-0.529501 1.031824 13.835729
-0.500826 1.029863 13.809445
-0.472257 1.027903 13.783157
-0.443828 1.026024 13.757964
-0.415432 1.023980 13.730556
-0.387024 1.021611 13.698794
-0.358206 1.017718 13.646593
-0.327926 1.008681 13.525411
-0.297067 0.996077 13.356400
-0.267964 0.987449 13.240712
-0.240025 0.981684 13.163403
-0.212516 0.976474 13.093549
-0.185449 0.972112 13.035053
-0.159006 0.970123 13.008392
-0.132625 0.967813 12.977415
-0.106468 0.966403 12.958505
-0.080308 0.964051 12.926971
-0.054326 0.962617 12.907739
-0.028408 0.960735 12.882500
-0.002595 0.960253 12.876037
0.023170 0.958840 12.857096
0.048836 0.956977 12.832115
0.074545 0.956963 12.831928
0.100266 0.957057 12.833181
0.126207 0.958795 12.856483
0.152189 0.960197 12.875290
0.177991 0.960219 12.875587
0.203904 0.960764 12.882887
0.230021 0.962037 12.899956
0.256341 0.963813 12.923779
0.282244 0.963842 12.924170
0.308727 0.965683 12.948850
0.334877 0.966273 12.956763
0.361285 0.967472 12.972839
0.388013 0.969308 12.997458
0.414839 0.971144 13.022075
0.442078 0.973671 13.055959
0.469181 0.975634 13.082286
0.497136 0.979066 13.128298
0.525461 0.982845 13.178977
0.553681 0.986076 13.222303
0.582394 0.989851 13.272913
0.611407 0.993782 13.325630
0.639811 0.996436 13.361214
0.669244 1.000415 13.414574
0.701824 1.008611 13.524467
0.743230 1.028408 13.789934
0.775380 1.034438 13.870785
0.803690 1.035106 13.879739
0.833044 1.037027 13.905503
0.861799 1.038104 13.919938
0.891311 1.039996 13.945312
0.920927 1.041890 13.970711
0.951483 1.044706 14.008465
0.981917 1.047229 14.042297
1.009903 1.047074 14.040222
1.035615 1.044633 14.007496
1.068177 1.049049 14.066702
1.101563 1.054026 14.133442
1.098897 1.025122 13.745866
0.975232 0.887515 11.900699
0.965007 0.857250 11.494875
0.988458 0.857614 11.499749
1.009975 0.856322 11.482422
1.028740 0.852806 11.435276
1.048568 0.850304 11.401736
1.069614 0.848877 11.382597
1.090680 0.847524 11.364460
1.112098 0.846495 11.350653
1.134609 0.846322 11.348344
1.157470 0.846412 11.349548
1.180145 0.846365 11.348917
1.204803 0.847716 11.367024
1.229315 0.848914 11.383100
1.253762 0.850026 11.398009
1.281168 0.853068 11.438795
1.308320 0.855837 11.475928
1.333636 0.857330 11.495947
1.368886 0.865050 11.599462
1.437406 0.893186 11.976735
1.567386 0.957961 12.845306
1.682160 1.011500 13.563206
1.726809 1.021840 13.701856
1.736573 1.011535 13.563684
1.687282 0.967680 12.975628
1.659138 0.937100 12.565583
1.682942 0.936336 12.555335
1.711773 0.938351 12.582350
1.730890 0.935059 12.538211
1.755889 0.934993 12.537328
1.833958 0.962790 12.910063
2.037584 1.054812 14.143984
2.102739 1.073609 14.396035
2.105441 1.060442 14.219481
2.129687 1.058333 14.191191
2.164094 1.061262 14.230468
2.155324 1.043217 13.988499
2.049371 0.979200 13.130098
1.895801 0.894342 11.992244
1.815652 0.845812 11.341505
1.807740 0.831717 11.152496
1.756201 0.798139 10.702245
1.683471 0.755856 10.135280
1.675014 0.743095 9.964169
1.686262 0.739274 9.912928
1.699918 0.736585 9.876873
1.715443 0.734758 9.852374
1.728928 0.732109 9.816857
1.743727 0.730070 9.789516
1.758588 0.728102 9.763125
1.777523 0.727846 9.759686
1.792907 0.726156 9.737034
1.803710 0.722668 9.690259
1.810210 0.717548 9.621610
1.815301 0.711984 9.546995
1.834094 0.711854 9.545249
1.856583 0.713146 9.562575
1.876651 0.713491 9.567204
1.887143 0.710225 9.523417
1.854317 0.690886 9.264089
1.873928 0.691273 9.269278
0.975031 0.356149 4.775605
0.977439 0.353559 4.740871
0.974886 0.349241 4.682979
0.973769 0.345516 4.633021
0.974901 0.342651 4.594606
0.979702 0.341117 4.574042
0.985759 0.340045 4.559668
0.993779 0.339664 4.554553
1.002488 0.339523 4.552663
1.010174 0.339041 4.546199
1.018853 0.338898 4.544283
1.027068 0.338604 4.540346
1.034899 0.338191 4.534801
1.042155 0.337598 4.526851
1.049704 0.337109 4.520301
1.057255 0.336630 4.513867
1.065162 0.336271 4.509054
1.072116 0.335619 4.500320
1.079580 0.335137 4.493857
1.086615 0.334531 4.485728
1.094987 0.334343 4.483209
1.101779 0.333679 4.474310
1.108015 0.332860 4.463317
1.115505 0.332427 4.457514
1.125685 0.332796 4.462464
1.135755 0.333127 4.466903
1.143787 0.332860 4.463323
1.152267 0.332726 4.461529
1.164388 0.333638 4.473753
1.177979 0.334954 4.491398
1.189122 0.335559 4.499509
1.199097 0.335827 4.503112
1.208300 0.335878 4.503787
1.218159 0.336108 4.506874
1.228728 0.336530 4.512528
1.238371 0.336693 4.514719
1.249020 0.337126 4.520522
1.260070 0.337660 4.527680
1.270968 0.338145 4.534195
1.282900 0.338898 4.544281
1.295104 0.339710 4.555179
1.307212 0.340487 4.565591
1.318183 0.340959 4.571917
1.328433 0.341239 4.575670
1.338406 0.341444 4.578422
1.349139 0.341839 4.583722
1.363582 0.343162 4.601468
1.379978 0.344956 4.625522
2.493766 0.619214 8.303042
3.972574 0.979872 13.139111
3.983421 0.976079 13.088254
4.009951 0.976154 13.089252
4.033043 0.975396 13.079087
4.072773 0.978646 13.122665
4.104602 0.979967 13.140388
4.128779 0.979457 13.133542
-4.160305 0.981517 12.809203
-4.128906 0.980155 12.791440
-4.103993 0.980327 12.793674
-4.080947 0.980949 12.801791
-4.057580 0.981501 12.808998
-4.034173 0.982051 12.816172
-4.010242 0.982479 12.821760
-3.980945 0.981589 12.810154
-3.956257 0.981832 12.813324
-3.932034 0.982195 12.818052
-3.902923 0.981333 12.806803
-3.878005 0.981520 12.809254
-3.854458 0.982060 12.816294
-3.825112 0.981119 12.804020
-3.801483 0.981642 12.810846
-3.776296 0.981768 12.812481
-3.752602 0.982285 12.819237
-3.727544 0.982451 12.821392
-3.698112 0.981457 12.808430
-3.672980 0.981599 12.810284
-3.644524 0.980849 12.800489
-3.617765 0.980547 12.796555
-3.589026 0.979701 12.785516
-3.559269 0.978563 12.770663
-3.532357 0.978196 12.765875
-3.503756 0.977353 12.754871
-3.474074 0.976194 12.739743
-3.449527 0.976471 12.743358
-3.418986 0.975043 12.724718
-3.389381 0.973862 12.709312
-3.364173 0.973936 12.710279
-3.334298 0.972651 12.693498
-3.308571 0.972564 12.692370
-3.280334 0.971733 12.681524
-3.252988 0.971155 12.673976
-3.224034 0.970084 12.660000
-3.196091 0.969302 12.649799
-3.172346 0.969791 12.656183
-3.145531 0.969342 12.650325
-3.118420 0.968794 12.643171
-3.094525 0.969245 12.649049
-3.065203 0.967988 12.632655
-3.040650 0.968230 12.635802
-3.016744 0.968683 12.641720
-2.992724 0.969107 12.647251
-2.968717 0.969542 12.652936
-2.944668 0.969972 12.658536
-2.915334 0.968652 12.641319
-2.890831 0.968929 12.644931
-2.862259 0.967835 12.630650
-2.837040 0.967865 12.631042
-2.807434 0.966385 12.611735
-2.780491 0.965804 12.604145
-2.754207 0.965443 12.599437
-2.726829 0.964688 12.589585
-2.700296 0.964221 12.583488
-2.672018 0.963116 12.569073
-2.647114 0.963218 12.570398
-2.622713 0.963506 12.574164
-2.598523 0.963879 12.579026
-2.574351 0.964265 12.584069
-2.550119 0.964637 12.588919
-2.522800 0.963836 12.578469
-2.496721 0.963498 12.574054
-2.469362 0.962654 12.563041
-2.443591 0.962418 12.559958
-2.420095 0.963082 12.568628
-2.399533 0.964941 12.592881
-2.371472 0.963791 12.577876
-2.347095 0.964130 12.582296
-2.318211 0.962604 12.562385
-2.289844 0.961262 12.544871
-2.261870 0.960057 12.529151
-2.236287 0.959852 12.526466
-2.207674 0.958326 12.506557
-2.183318 0.958634 12.510579
-2.158955 0.958947 12.514662
-2.134610 0.959275 12.518942
-2.110202 0.959582 12.522945
-2.089005 0.961374 12.546336
-2.064563 0.961699 12.550570
-2.044008 0.963864 12.578827
-2.018659 0.963794 12.577920
-1.994057 0.964084 12.581703
-1.970227 0.964759 12.590515
-1.945554 0.965034 12.594099
-1.917179 0.963456 12.573500
-1.892561 0.963749 12.577323
-1.867888 0.964021 12.580875
-1.843199 0.964292 12.584410
-1.818512 0.964572 12.588064
-1.790998 0.963338 12.571972
-1.766310 0.963612 12.575547
-1.741573 0.963867 12.578868
-1.714162 0.962627 12.562692
-1.689577 0.962961 12.567049
-1.665504 0.963602 12.575405
-1.641265 0.964164 12.582747
-1.617405 0.964970 12.593266
-1.597932 0.968461 12.638818
-1.581221 0.973764 12.708035
-1.559707 0.976236 12.740289
-1.543702 0.982295 12.819359
-1.524928 0.986767 12.877725
-1.502801 0.989186 12.909296
-1.495573 1.001669 13.072199
-1.520250 1.036346 13.524752
-1.528169 1.060651 13.841937
-1.515169 1.071066 13.977859
-1.497022 1.078167 14.070532
-1.471535 1.080153 14.096445
-1.432305 1.071931 13.989147
-1.399277 1.068115 13.939345
-1.375898 1.071659 13.985600
-1.350323 1.073605 14.010991
-1.318734 1.070750 13.973739
-1.290683 1.070706 13.973159
-1.261999 1.070123 13.965557
-1.229469 1.066180 13.914094
-1.199851 1.064636 13.893944
-1.171970 1.064598 13.893448
-1.141165 1.061836 13.857411
-1.111613 1.060132 13.835173
-1.083031 1.059290 13.824179
-1.055294 1.059251 13.823676
-1.027334 1.058981 13.820142
-0.998003 1.057242 13.797455
-0.970097 1.056959 13.793754
-0.942432 1.056927 13.793344
-0.913495 1.055425 13.773743
-0.887608 1.057463 13.800343
-0.860191 1.057751 13.804099
-0.831342 1.056238 13.784348
-0.804644 1.057448 13.800146
-0.777482 1.058114 13.808827
-0.748790 1.056668 13.789960
-0.719898 1.054819 13.765836
-0.691984 1.054312 13.759209
-0.664283 1.054101 13.756467
-0.635977 1.052872 13.740417
-0.607544 1.051311 13.720046
-0.579646 1.050571 13.710387
-0.551331 1.048964 13.689424
-0.522782 1.046722 13.660164
-0.493824 1.043365 13.616353
-0.466242 1.042696 13.607618
-0.438148 1.040726 13.581907
-0.410157 1.038755 13.556191
-0.381763 1.035414 13.512582
-0.353194 1.031049 13.455625
-0.323795 1.023342 13.355044
-0.294603 1.014958 13.245629
-0.265963 1.007004 13.141825
-0.238558 1.002495 13.082979
-0.211518 0.998592 13.032043
-0.184684 0.994700 12.981255
-0.158599 0.994226 12.975073
-0.132403 0.992736 12.955620
-0.106194 0.990405 12.925202
-0.080139 0.988458 12.899790
-0.054186 0.986517 12.874456
-0.028390 0.986494 12.874162
-0.002590 0.984548 12.848762
0.023110 0.982663 12.824165
0.048805 0.982653 12.824031
0.074498 0.982638 12.823842
0.100191 0.982620 12.823606
0.125886 0.982633 12.823777
0.151874 0.984533 12.848571
0.177676 0.984857 12.852795
0.203737 0.986352 12.872313
0.229532 0.986370 12.872539
0.255462 0.986902 12.879483
0.281810 0.988804 12.904309
0.308070 0.990106 12.921296
0.334571 0.991916 12.944926
0.360745 0.992569 12.953436
0.387316 0.994153 12.974118
0.414230 0.996363 13.002952
0.441164 0.998355 13.028953
0.468701 1.001416 13.068902
0.496168 1.004010 13.102748
0.524433 1.007875 13.153187
0.551891 1.009895 13.179558
0.580522 1.013780 13.230252
0.608898 1.016898 13.270948
0.637835 1.020653 13.319954
0.666467 1.023639 13.358920
0.697735 1.030286 13.445670
0.732334 1.041174 13.587761
0.763037 1.045942 13.649981
0.790897 1.046617 13.658792
0.819783 1.048560 13.684148
0.848080 1.049648 13.698353
0.877857 1.052442 13.734811
0.907834 1.055299 13.772097
0.940592 1.061125 13.848121
0.970029 1.062976 13.872287
0.995712 1.060727 13.842928
1.022368 1.059607 13.828316
1.053437 1.063000 13.872597
1.081344 1.063110 13.874027
1.065445 1.021226 13.327423
0.941188 0.880068 11.485262
0.943268 0.860962 11.235922
0.975119 0.869287 11.344563
1.002905 0.873691 11.402039
1.022901 0.871264 11.370365
1.044893 0.870606 11.361779
1.066002 0.869256 11.344152
1.087428 0.868215 11.330569
1.109746 0.867914 11.326648
1.132210 0.867738 11.324346
1.155128 0.867909 11.326583
1.177574 0.867726 11.324192
1.201870 0.868888 11.339349
1.226715 0.870396 11.359029
1.251999 0.872155 11.381985
1.278971 0.875005 11.419182
1.304269 0.876630 11.440393
1.332905 0.880405 11.489649
1.382704 0.897791 11.716554
1.491638 0.952353 12.428605
1.600951 1.005361 13.120382
1.617950 0.999621 13.045479
1.606782 0.976939 12.749466
1.679493 1.005167 13.117857
1.671696 0.985085 12.855767
1.578764 0.916205 11.956861
1.574592 0.900125 11.747007
1.587813 0.894315 11.671183
1.570481 0.871714 11.376237
1.522522 0.833004 10.871051
1.528983 0.824740 10.763206
1.563805 0.831791 10.855224
1.563828 0.820393 10.706473
1.555394 0.804927 10.504634
1.542156 0.787421 10.276173
1.545241 0.778601 10.161071
1.560083 0.775857 10.125259
1.574885 0.773164 10.090119
1.591481 0.771409 10.067214
1.610418 0.770819 10.059506
1.623566 0.767506 10.016273
1.634204 0.763102 9.958802
1.643928 0.758383 9.897212
1.655997 0.754845 9.851041
1.668615 0.751637 9.809185
1.683697 0.749602 9.782622
1.699333 0.747857 9.759851
1.712253 0.744970 9.722178
1.727685 0.743229 9.699453
1.743066 0.741505 9.676951
1.758922 0.740019 9.657553
1.777487 0.739692 9.653287
1.792668 0.737979 9.630936
1.806444 0.735730 9.601590
1.817132 0.732285 9.556625
1.832755 0.730879 9.538280
1.854108 0.731764 9.549828
1.867921 0.729685 9.522696
1.880768 0.727275 9.491243
1.896528 0.726028 9.474972
1.861506 0.705558 9.207831
0.976042 0.366314 4.780556
0.972483 0.361432 4.716837
0.970042 0.357055 4.659711
0.968585 0.353119 4.608357
0.970472 0.350467 4.573736
0.975942 0.349145 4.556489
0.983087 0.348442 4.547311
0.990683 0.347910 4.540367
0.999366 0.347765 4.538484
1.008012 0.347611 4.536469
1.016672 0.347464 4.534556
1.025310 0.347313 4.532578
1.032925 0.346820 4.526148
1.040959 0.346476 4.521655
1.048499 0.345974 4.515111
1.056442 0.345613 4.510400
1.064061 0.345153 4.504395
1.071440 0.344624 4.497487
1.078471 0.343992 4.489244
1.086329 0.343633 4.484549
1.093846 0.343172 4.478535
1.101235 0.342679 4.472104
1.107842 0.341952 4.462622
1.114820 0.341351 4.454776
1.124983 0.341727 4.459681
1.134934 0.342033 4.463675
1.143610 0.341953 4.462630
1.152581 0.341962 4.462745
1.164697 0.342896 4.474942
1.178948 0.344440 4.495091
1.189312 0.344834 4.500227
1.199555 0.345187 4.504832
1.209124 0.345342 4.506858
1.218728 0.345505 4.508982
1.228798 0.345796 4.512785
1.239390 0.346229 4.518436
1.250017 0.346665 4.524128
1.261048 0.347207 4.531196
1.272014 0.347723 4.537929
1.284165 0.348553 4.548763
1.296420 0.349400 4.559811
1.308510 0.350190 4.570126
1.318632 0.350447 4.573474
1.329529 0.350904 4.579443
1.339089 0.351005 4.580758
1.351535 0.351855 4.591861
1.358836 0.351364 4.585453
1.367898 0.351332 4.585031
3.650275 0.931285 12.153666
3.904650 0.989582 12.914457
3.942089 0.992493 12.952449
3.955772 0.989424 12.912401
3.990497 0.991624 12.941112
4.017708 0.991941 12.945241
4.055391 0.994822 12.982843
4.087179 0.996230 13.001214
-4.100731 0.993334 12.625780
-4.071183 0.992298 12.612612
-4.048221 0.992864 12.619811
-4.025487 0.993494 12.627814
-4.002364 0.994035 12.634694
-3.979348 0.994609 12.641996
-3.954883 0.994827 12.644761
-3.931054 0.995208 12.649610
-3.901169 0.994052 12.634907
-3.877977 0.994596 12.641829
-3.848527 0.993533 12.628311
-3.825298 0.994072 12.635159
-3.801873 0.994566 12.641446
-3.777699 0.994871 12.645314
-3.754363 0.995401 12.652055
-3.729601 0.995558 12.654051
-3.700345 0.994509 12.640719
-3.677182 0.995095 12.648164
-3.652396 0.995246 12.650092
-3.624111 0.994440 12.639843
-3.599713 0.994696 12.643101
-3.569232 0.993263 12.624887
-3.540240 0.992227 12.611720
-3.515557 0.992393 12.613825
-3.485223 0.990954 12.595534
-3.456127 0.989849 12.581485
-3.431459 0.990005 12.583468
-3.405868 0.989895 12.582070
-3.376033 0.988541 12.564858
-3.347854 0.987654 12.553595
-3.321156 0.987195 12.547757
-3.292208 0.986055 12.533265
-3.265186 0.985479 12.525938
-3.238339 0.984947 12.519176
-3.208880 0.983605 12.502127
-3.181902 0.983010 12.494555
-3.157735 0.983280 12.497988
-3.128158 0.981856 12.479895
-3.102217 0.981560 12.476130
-3.076022 0.981178 12.471277
-3.051933 0.981467 12.474949
-3.027825 0.981755 12.478605
-2.998294 0.980274 12.459788
-2.974721 0.980733 12.465622
-2.951035 0.981162 12.471073
-2.927362 0.981603 12.476677
-2.900938 0.981121 12.470550
-2.875221 0.980872 12.467381
-2.851524 0.981313 12.472995
-2.826766 0.981394 12.474023
-2.799551 0.980616 12.464133
-2.770869 0.979305 12.447472
-2.744855 0.978922 12.442606
-2.717247 0.977959 12.430357
-2.691669 0.977714 12.427252
-2.663577 0.976544 12.412375
-2.638881 0.976609 12.413198
-2.615038 0.976993 12.418080
-2.588184 0.976249 12.408624
