ply
format ascii 1.0
comment generated by convert_depth_to_ply.py
element vertex 1740
property float x
property float y
property float z
end_header
0.535474 0.232466 2.025840
0.542287 0.231727 2.019398
0.549174 0.231042 2.013431
0.556444 0.230537 2.009027
0.563194 0.229834 2.002903
0.569889 0.229130 1.996772
0.576526 0.228424 1.990617
0.583127 0.227724 1.984516
0.590189 0.227221 1.980133
0.596191 0.226330 1.972365
0.602569 0.225604 1.966040
0.609440 0.225080 1.961474
0.615816 0.224390 1.955458
0.622087 0.223680 1.949269
0.628303 0.222969 1.943074
0.635034 0.222456 1.938611
0.641779 0.221962 1.934302
0.648487 0.221467 1.929992
0.655211 0.220990 1.925835
0.662375 0.220672 1.923059
0.669580 0.220374 1.920466
0.676106 0.219863 1.916012
0.683240 0.219560 1.913367
0.690504 0.219304 1.911140
0.698865 0.219399 1.911967
0.706668 0.219319 1.911268
0.714401 0.219219 1.910395
0.722251 0.219156 1.909852
0.731441 0.219497 1.912823
0.741196 0.219999 1.917193
0.749479 0.220057 1.917703
0.759665 0.220667 1.923019
0.771285 0.221676 1.931812
1.127241 0.320596 2.793858
2.236470 0.629491 5.485742
2.317389 0.645590 5.626036
2.346667 0.647122 5.639386
2.384969 0.651087 5.673937
2.380740 0.643477 5.607621
2.063151 0.552154 4.811779
0.980346 0.259811 2.264143
0.985846 0.258749 2.254887
0.986822 0.256531 2.235559
0.990128 0.254955 2.221823
0.994598 0.253706 2.210935
0.997284 0.252029 2.196319
0.998988 0.250136 2.179828
0.999817 0.248061 2.161747
1.002686 0.246526 2.148365
1.006148 0.245162 2.136480
1.009562 0.243811 2.124706
1.013823 0.242686 2.114905
1.018473 0.241674 2.106079
1.023610 0.240793 2.098406
1.027829 0.239713 2.088997
1.033244 0.238928 2.082157
1.038720 0.238171 2.075557
1.043723 0.237319 2.068127
1.048561 0.236443 2.060498
1.053892 0.235692 2.053956
1.059210 0.234951 2.047493
1.064919 0.234307 2.041887
1.070653 0.233680 2.036417
1.076219 0.233025 2.030715
1.082498 0.232535 2.026442
1.088116 0.231911 2.021005
1.094622 0.231485 2.017291
1.101173 0.231075 2.013715
1.107047 0.230530 2.008965
1.113099 0.230030 2.004609
1.119654 0.229640 2.001216
1.125906 0.229195 1.997338
1.131229 0.228569 1.991881
1.137642 0.228171 1.988409
1.142736 0.227516 1.982702
1.148138 0.226931 1.977605
1.153308 0.226309 1.972186
1.158252 0.225652 1.966461
1.164005 0.225161 1.962182
1.169369 0.224602 1.957312
1.176322 0.224354 1.955150
1.183412 0.224136 1.953245
1.190684 0.223954 1.951665
1.197782 0.223743 1.949823
1.205963 0.223736 1.949758
1.212995 0.223516 1.947847
1.221229 0.223520 1.947879
1.232779 0.224127 1.953166
1.241689 0.224249 1.954228
1.318869 0.236617 2.062013
2.049600 0.365308 3.183501
2.083335 0.368905 3.214845
2.144361 0.377256 3.287624
2.226903 0.389261 3.392242
2.293075 0.398270 3.470749
2.294772 0.396037 3.451291
-3.733620 0.655679 5.488968
-3.714365 0.656366 5.494723
-3.693686 0.656809 5.498430
-3.674258 0.657481 5.504057
-3.651841 0.657623 5.505250
-3.630927 0.658040 5.508740
-3.607775 0.658054 5.508856
-3.584654 0.658074 5.509023
-3.557754 0.657396 5.503345
-3.534120 0.657316 5.502677
-3.511138 0.657358 5.503024
-3.490916 0.657919 5.507729
-3.471516 0.658645 5.513803
-3.453849 0.659711 5.522729
-3.428355 0.659287 5.519176
-3.408252 0.659901 5.524314
-3.409763 0.664736 5.564795
-3.216651 0.631434 5.286011
-2.036175 0.402494 3.369449
-1.987377 0.395608 3.311807
-1.959794 0.392878 3.288954
-1.938375 0.391354 3.276191
-1.917308 0.389879 3.263845
-1.899680 0.389087 3.257217
-1.881903 0.388253 3.250237
-1.864187 0.387420 3.243257
-1.845960 0.386467 3.235280
-1.825633 0.385057 3.223478
-1.809330 0.384481 3.218656
-1.797822 0.384923 3.222354
-1.793126 0.386841 3.238413
-1.787332 0.388550 3.252719
-1.773144 0.388446 3.251852
-1.760448 0.388671 3.253729
-1.749903 0.389377 3.259644
-1.745180 0.391400 3.276582
-1.772882 0.400786 3.355155
-1.779035 0.405412 3.393881
-1.767691 0.406094 3.399588
-1.756420 0.406804 3.405529
-1.744857 0.407457 3.410996
-1.733467 0.408161 3.416896
-1.724631 0.409484 3.427969
-1.715691 0.410805 3.439024
-1.707432 0.412312 3.451642
-1.699735 0.413982 3.465624
-1.692798 0.415868 3.481411
-1.686840 0.418029 3.499505
-1.682309 0.420586 3.520905
-1.677394 0.423091 3.541877
-1.677038 0.426801 3.572936
-1.666171 0.427879 3.581964
-1.640582 0.425162 3.559215
-1.620087 0.423727 3.547201
-1.608121 0.424516 3.553811
-2.425846 0.646406 5.411341
-2.446549 0.658112 5.509343
-2.427978 0.659378 5.519938
-2.404698 0.659377 5.519927
-2.381002 0.659260 5.518952
-2.358901 0.659588 5.521693
-2.334520 0.659277 5.519097
-2.311845 0.659448 5.520521
-2.288043 0.659297 5.519258
-2.265742 0.659579 5.521625
-2.243492 0.659883 5.524169
-2.223140 0.660758 5.531488
-2.206459 0.662753 5.548192
-1.911377 0.580272 4.857707
-1.412132 0.433351 3.627768
-1.392503 0.432007 3.616517
-1.376263 0.431696 3.613917
-1.360193 0.431433 3.611709
-1.344232 0.431198 3.609742
-1.328424 0.431007 3.608149
-1.314597 0.431463 3.611960
-1.299809 0.431609 3.613189
-1.284973 0.431744 3.614315
-1.272670 0.432743 3.622676
-1.262691 0.434565 3.637935
-1.253848 0.436829 3.656882
-1.246844 0.439797 3.681733
-1.226015 0.437903 3.665872
-1.207164 0.436675 3.655595
-1.188783 0.435588 3.646496
-1.174746 0.436085 3.650658
-1.158596 0.435801 3.648277
-1.144556 0.436313 3.652563
-1.130610 0.436875 3.657272
-1.116765 0.437493 3.662441
-1.105964 0.439337 3.677879
-1.094773 0.441076 3.692440
-1.084012 0.443041 3.708891
-1.175258 0.487366 4.079947
-1.537926 0.647234 5.418275
-1.530827 0.653961 5.474591
-1.502039 0.651487 5.453882
-1.478856 0.651405 5.453196
-1.471671 0.658479 5.512414
-1.064478 0.483930 4.051184
-0.916894 0.423634 3.546422
-0.876723 0.411789 3.447268
-0.836073 0.399317 3.342854
-0.804428 0.390791 3.271483
-0.784886 0.387951 3.247703
-0.768617 0.386655 3.236859
-0.750936 0.384590 3.219572
-0.732045 0.381818 3.196363
-0.713901 0.379339 3.175608
-0.696994 0.377434 3.159666
-0.680781 0.375839 3.146312
-0.666018 0.374997 3.139260
-0.649592 0.373165 3.123921
-0.634311 0.371928 3.113574
-0.621144 0.371906 3.113384
-0.610770 0.373590 3.127482
-0.598653 0.374259 3.133084
-0.585336 0.374191 3.132517
-0.572590 0.374494 3.135054
-0.559764 0.374758 3.137257
-0.546885 0.374997 3.139265
-0.533520 0.374908 3.138514
-0.520568 0.375111 3.140213
-0.507656 0.375354 3.142249
-0.493782 0.374880 3.138281
-0.480816 0.375089 3.140029
-0.467855 0.375313 3.141904
-0.454872 0.375532 3.143737
-0.441865 0.375743 3.145509
-0.428837 0.375950 3.147239
-0.415821 0.376180 3.149169
-0.403364 0.376948 3.155595
-0.390638 0.377509 3.160290
-0.378483 0.378680 3.170091
-0.366366 0.379976 3.180945
-0.355327 0.382532 3.202343
-0.348323 0.389806 3.263232
-0.336078 0.391571 3.278008
-0.320273 0.389161 3.257834
-0.305096 0.387333 3.242528
-0.290809 0.386517 3.235698
-0.276896 0.386141 3.232550
-0.262929 0.385648 3.228423
-0.249306 0.385632 3.228294
-0.235379 0.385117 3.223981
-0.221773 0.385098 3.223820
-0.207885 0.384552 3.219254
-0.194307 0.384546 3.219199
-0.180790 0.384667 3.220210
-0.167390 0.385078 3.223655
-0.153960 0.385486 3.227072
-0.140534 0.385984 3.231237
-0.127079 0.386502 3.235571
-0.113250 0.385868 3.230265
-0.099056 0.383648 3.211686
-0.085164 0.382080 3.198560
-0.071402 0.380612 3.186271
-0.057852 0.379861 3.179980
-0.044358 0.379136 3.173907
-0.030915 0.378407 3.167804
-0.017524 0.377672 3.161657
-0.004192 0.377665 3.161594
0.009131 0.377340 3.158878
0.022425 0.376907 3.155256
0.035724 0.376849 3.154762
0.048948 0.376241 3.149674
0.062091 0.375408 3.142703
0.074816 0.372785 3.120743
0.075726 0.320879 2.686220
0.086707 0.319605 2.675555
0.097780 0.318924 2.669853
0.108819 0.318283 2.664480
0.120078 0.318346 2.665013
0.132061 0.320155 2.680154
0.144669 0.323074 2.704591
0.153063 0.316841 2.652409
0.162770 0.313992 2.628566
0.172707 0.311921 2.611222
0.182941 0.310602 2.600184
0.193120 0.309345 2.589664
0.203308 0.308235 2.580369
0.213473 0.307206 2.571752
0.223580 0.306196 2.563300
0.233694 0.305289 2.555707
0.244106 0.304835 2.551902
0.254349 0.304215 2.546719
0.264711 0.303783 2.543102
0.274935 0.303232 2.538490
0.285221 0.302789 2.534775
0.295587 0.302459 2.532017
0.306083 0.302280 2.530518
0.316583 0.302118 2.529163
0.327072 0.301956 2.527806
0.337584 0.301824 2.526701
0.348039 0.301652 2.525263
0.358471 0.301471 2.523740
0.369221 0.301559 2.524482
0.380370 0.301959 2.527832
0.387346 0.299115 2.504024
0.391234 0.294100 2.462040
0.399010 0.292193 2.446073
0.406868 0.290439 2.431391
0.415189 0.289094 2.420135
0.421894 0.286716 2.400225
0.426640 0.283149 2.370363
0.433127 0.280874 2.351318
0.440335 0.279158 2.336956
0.447220 0.277317 2.321542
0.454663 0.275893 2.309623
0.462183 0.274575 2.298587
0.469650 0.273280 2.287745
0.477773 0.272411 2.280474
0.486012 0.271642 2.274033
0.494189 0.270868 2.267557
0.502313 0.270095 2.261085
0.510919 0.269606 2.256985
0.519800 0.269276 2.254227
0.521319 0.265213 2.220215
0.497875 0.248818 2.082964
0.502483 0.246768 2.065800
0.508492 0.245464 2.054882
0.514270 0.244094 2.043413
0.520204 0.242841 2.032929
0.527088 0.242066 2.026440
0.533644 0.241167 2.018914
0.540952 0.240631 2.014429
0.548179 0.240076 2.009781
0.555028 0.239375 2.003915
0.561824 0.238673 1.998032
0.568569 0.237969 1.992144
0.575611 0.237410 1.987458
0.582224 0.236691 1.981441
0.589254 0.236160 1.976995
0.595729 0.235424 1.970839
0.602112 0.234673 1.964549
0.608557 0.233966 1.958633
0.615367 0.233416 1.954030
0.621131 0.232490 1.946273
0.627951 0.231978 1.941985
0.634065 0.231221 1.935653
0.641421 0.230931 1.933224
0.648126 0.230417 1.928919
0.654789 0.229900 1.924595
0.662009 0.229590 1.921995
0.668592 0.229069 1.917633
0.675136 0.228547 1.913264
0.682166 0.228200 1.910359
0.689397 0.227927 1.908077
0.697162 0.227836 1.907310
0.704949 0.227753 1.906618
0.712672 0.227652 1.905772
0.720603 0.227619 1.905495
0.729068 0.227753 1.906619
0.738694 0.228243 1.910722
0.748318 0.228722 1.914733
0.754351 0.228105 1.909568
0.763815 0.228527 1.913102
0.776656 0.229941 1.924935
1.036550 0.303713 2.542511
2.210045 0.640921 5.365431
2.324292 0.667223 5.585615
2.379690 0.676273 5.661377
2.356630 0.663068 5.550832
1.200568 0.334473 2.800022
0.978201 0.269869 2.259188
0.983459 0.268703 2.249428
0.987185 0.267144 2.236380
0.990524 0.265512 2.222712
0.993955 0.263934 2.209505
0.995453 0.261877 2.192286
0.996523 0.259746 2.174449
0.998251 0.257825 2.158363
1.001158 0.256239 2.145091
1.004711 0.254846 2.133428
1.008977 0.253657 2.123473
1.012752 0.252367 2.112671
1.017011 0.251218 2.103056
1.022194 0.250316 2.095502
1.027318 0.249415 2.087957
1.032283 0.248490 2.080221
1.037288 0.247591 2.072695
1.042236 0.246694 2.065182
1.047907 0.245981 2.059214
1.052873 0.245116 2.051969
1.058553 0.244429 2.046224
1.063992 0.243699 2.040109
1.069735 0.243049 2.034670
1.075309 0.242372 2.028999
1.081978 0.241950 2.025467
1.087595 0.241301 2.020036
1.094100 0.240858 2.016327
1.100649 0.240432 2.012756
1.107228 0.240018 2.009293
1.112903 0.239416 2.004255
1.119126 0.238940 2.000273
1.124690 0.238332 1.995181
1.130700 0.237827 1.990949
1.137112 0.237413 1.987483
1.142206 0.236731 1.981781
1.147607 0.236123 1.976691
1.152891 0.235500 1.971474
1.157491 0.234747 1.965169
1.162672 0.234122 1.959935
1.168619 0.233659 1.956056
1.175788 0.233444 1.954263
1.181935 0.233031 1.950807
1.189005 0.232805 1.948913
1.196943 0.232751 1.948457
1.204205 0.232567 1.946916
1.211228 0.232339 1.945010
1.219451 0.232343 1.945045
1.228016 0.232412 1.945620
1.242247 0.233545 1.955106
1.250655 0.233576 1.955363
1.550803 0.287735 2.408755
2.099067 0.386926 3.239121
2.204648 0.403760 3.380052
2.291036 0.416886 3.489936
2.355170 0.425821 3.564734
2.380121 0.427603 3.579653
-3.683964 0.672432 5.415966
-3.664956 0.673135 5.421631
-3.645096 0.673690 5.426099
-3.625829 0.674362 5.431511
-3.603085 0.674391 5.431749
-3.582461 0.674821 5.435208
-3.559611 0.674834 5.435312
-3.536534 0.674803 5.435069
-3.510435 0.674193 5.430149
-3.487520 0.674189 5.430120
-3.464362 0.674138 5.429711
-3.443891 0.674613 5.433537
-3.422421 0.674897 5.435825
-3.404596 0.675909 5.443973
-3.390098 0.677599 5.457589
-3.395058 0.683229 5.502929
-3.142669 0.636790 5.128894
-2.057633 0.419821 3.381365
-2.018190 0.414647 3.339689
-1.982842 0.410247 3.304250
-1.956168 0.407592 3.282869
-1.933984 0.405842 3.268770
-1.912883 0.404295 3.256313
-1.895293 0.403473 3.249695
-1.877479 0.402592 3.242595
-1.859875 0.401743 3.235756
-1.841532 0.400720 3.227520
-1.821246 0.399256 3.215730
-1.804956 0.398653 3.210874
-1.793428 0.399101 3.214478
-1.790228 0.401423 3.233178
-1.785366 0.403405 3.249141
-1.772943 0.403695 3.251483
-1.759552 0.403769 3.252074
-1.749010 0.404502 3.257980
-1.739713 0.405537 3.266318
-1.751434 0.411527 3.314564
-1.775936 0.420641 3.387970
-1.767602 0.422062 3.399417
-1.758107 0.423227 3.408798
-1.747358 0.424107 3.415884
-1.735830 0.424811 3.421553
-1.725601 0.425847 3.429898
-1.717185 0.427352 3.442019
-1.709796 0.429140 3.456422
-1.702225 0.430913 3.470701
-1.695246 0.432868 3.486445
-1.687775 0.434730 3.501445
-1.682087 0.437088 3.520440
-1.677657 0.439819 3.542430
-1.678455 0.443981 3.575955
-1.667449 0.445068 3.584710
-1.640075 0.441766 3.558116
-1.617533 0.439717 3.541610
-1.595853 0.437866 3.526700
-2.348589 0.650460 5.239002
-2.425877 0.678246 5.462793
-2.400803 0.677670 5.458155
-2.375337 0.676971 5.452530
-2.351791 0.676812 5.451244
-2.329557 0.677030 5.453003
-2.305779 0.676800 5.451149
-2.283166 0.676910 5.452037
-2.259569 0.676728 5.450573
-2.237599 0.677035 5.453042
-2.215220 0.677223 5.454556
-2.191786 0.677089 5.453474
-2.186246 0.682538 5.497366
-1.857300 0.586056 4.720272
-1.411024 0.450060 3.624921
-1.392871 0.449136 3.617473
-1.375886 0.448571 3.612925
-1.358342 0.447810 3.606793
-1.343270 0.447855 3.607160
-1.328910 0.448142 3.609469
-1.314125 0.448290 3.610663
-1.299319 0.448435 3.611828
-1.284225 0.448482 3.612209
-1.273142 0.449948 3.624019
-1.261952 0.451412 3.635805
-1.250667 0.452877 3.647606
-1.244471 0.456244 3.674725
-1.225258 0.454864 3.663609
-1.205273 0.453158 3.649868
-1.189394 0.452972 3.648370
-1.174378 0.453114 3.649513
-1.159149 0.453176 3.650018
-1.144172 0.453340 3.651336
-1.132013 0.454640 3.661809
-1.118317 0.455351 3.667531
-1.106839 0.456997 3.680787
-1.093540 0.457927 3.688282
-1.085309 0.461037 3.713331
-1.169796 0.504201 4.060984
-1.510225 0.660601 5.320679
-1.508509 0.669801 5.394779
-1.482518 0.668339 5.383004
-1.462367 0.669505 5.392394
-1.439157 0.669286 5.390627
-1.071470 0.506288 4.077793
-0.904592 0.434406 3.498838
-0.862320 0.420972 3.390633
-0.826024 0.410051 3.302675
-0.799892 0.403888 3.253035
-0.782734 0.402120 3.238798
-0.765931 0.400475 3.225548
-0.748944 0.398673 3.211031
-0.730354 0.395935 3.188982
-0.712528 0.393517 3.169502
-0.695754 0.391597 3.154043
-0.680355 0.390393 3.144343
-0.664785 0.389041 3.133449
-0.648529 0.387223 3.118811
-0.634067 0.386424 3.112377
-0.622517 0.387404 3.120265
-0.611065 0.388488 3.128995
-0.598274 0.388749 3.131104
-0.585501 0.389034 3.133400
-0.572711 0.389322 3.135714
-0.559881 0.389595 3.137914
-0.547036 0.389870 3.140129
-0.533931 0.389969 3.140930
-0.520524 0.389847 3.139945
-0.507372 0.389915 3.140493
-0.494402 0.390130 3.142222
-0.480843 0.389879 3.140202
-0.467590 0.389869 3.140121
-0.454580 0.390068 3.141721
-0.441581 0.390287 3.143489
-0.428607 0.390543 3.145552
-0.415971 0.391132 3.150298
-0.403246 0.391675 3.154669
-0.390431 0.392164 3.158609
-0.378195 0.393291 3.167681
-0.365971 0.394512 3.177520
-0.354994 0.397221 3.199337
-0.347584 0.404294 3.256305
-0.335763 0.406607 3.274936
-0.320293 0.404509 3.258037
-0.305088 0.402574 3.242451
-0.290876 0.401827 3.236435
-0.276827 0.401245 3.231749
-0.263016 0.400964 3.229484
-0.249153 0.400570 3.226311
-0.235609 0.400672 3.227135
-0.221669 0.400072 3.222301
-0.208098 0.400103 3.222552
-0.194556 0.400199 3.223323
-0.181005 0.400288 3.224037
-0.167473 0.400439 3.225254
-0.154161 0.401188 3.231288
-0.140824 0.402009 3.237904
-0.127369 0.402635 3.242944
-0.113617 0.402361 3.240739
-0.099207 0.399362 3.216581
-0.085142 0.397021 3.197729
-0.071367 0.395409 3.184740
-0.057816 0.394573 3.178013
-0.044330 0.393815 3.171900
-0.030895 0.393053 3.165768
-0.017532 0.392736 3.163215
-0.004189 0.392283 3.159569
0.009133 0.392274 3.159491
0.022432 0.391859 3.156149
0.035705 0.391468 3.153004
0.048996 0.391438 3.152760
0.062122 0.390383 3.144262
0.074775 0.387248 3.119011
0.075688 0.333348 2.684883
0.086651 0.331973 2.673809
0.097728 0.331304 2.668419
0.108760 0.330638 2.663058
0.120104 0.330953 2.665596
0.132521 0.333919 2.689481
0.144483 0.335363 2.701111
0.153096 0.329388 2.652987
0.162719 0.326253 2.627738
0.172764 0.324309 2.612082
0.182976 0.322894 2.600688
0.193189 0.321641 2.590590
0.203376 0.320480 2.581240
0.213553 0.319421 2.572713
0.223706 0.318432 2.564743
0.233968 0.317682 2.558706
0.244219 0.316984 2.553081
0.254594 0.316498 2.549171
0.264806 0.315858 2.544012
0.275061 0.315317 2.539654
0.285433 0.314944 2.536655
0.295693 0.314481 2.532923
0.306184 0.314287 2.531360
0.316689 0.314119 2.530007
0.327182 0.313950 2.528651
0.337652 0.313772 2.527213
0.348170 0.313648 2.526213
0.358572 0.313429 2.524448
0.369161 0.313382 2.524072
0.380038 0.313575 2.525626
0.385682 0.309557 2.493263
0.390206 0.304877 2.455572
0.398200 0.303081 2.441106
0.406371 0.301506 2.428423
0.414712 0.300132 2.417355
0.420985 0.297363 2.395050
0.425947 0.293819 2.366509
0.432620 0.291591 2.348564
0.439621 0.289679 2.333163
0.446862 0.288005 2.319680
0.454079 0.286388 2.306656
0.461743 0.285115 2.296398
0.469406 0.283893 2.286561
0.477474 0.282960 2.279048
0.485709 0.282162 2.272614
0.494364 0.281633 2.268359
0.502491 0.280830 2.261887
0.511272 0.280415 2.258543
0.520107 0.280044 2.255559
0.503250 0.266102 2.143263
0.495922 0.257601 2.074792
0.500789 0.255619 2.058834
0.506823 0.254291 2.048139
0.512829 0.252994 2.037688
0.519264 0.251947 2.029257
0.525808 0.250986 2.021517
0.533053 0.250385 2.016679
0.540092 0.249708 2.011224
0.547293 0.249126 2.006532
0.554117 0.248392 2.000623
0.560936 0.247678 1.994875
0.568001 0.247092 1.990157
0.574680 0.246358 1.984242
0.581304 0.245622 1.978310
0.587829 0.244865 1.972216
0.594768 0.244299 1.967659
0.601281 0.243577 1.961839
0.607602 0.242797 1.955557
0.614377 0.242217 1.950889
0.620763 0.241501 1.945121
0.627460 0.240923 1.940469
0.633692 0.240184 1.934513
0.640421 0.239649 1.930208
0.647737 0.239345 1.927760
0.654406 0.238813 1.923470
0.661487 0.238442 1.920480
0.668203 0.237950 1.916518
0.674701 0.237393 1.912032
0.681196 0.236848 1.907642
0.688377 0.236551 1.905253
0.695995 0.236410 1.904116
0.703249 0.236150 1.902019
0.710953 0.236045 1.901174
0.719280 0.236146 1.901994
0.727227 0.236123 1.901805
0.736166 0.236418 1.904184
0.745266 0.236758 1.906923
0.753020 0.236668 1.906198
0.760565 0.236515 1.904963
0.771242 0.237329 1.911517
0.779658 0.237437 1.912390
0.983625 0.296487 2.387992
2.251603 0.671807 5.410933
2.415662 0.713527 5.746957
1.971918 0.576671 4.644678
0.969557 0.280750 2.261247
0.979116 0.280757 2.261303
0.982497 0.279010 2.247227
0.986476 0.277463 2.234774
0.989814 0.275768 2.221119
0.992346 0.273882 2.205927
0.993239 0.271583 2.187410
0.994067 0.269308 2.169090
0.996161 0.267415 2.153843
0.999605 0.265915 2.141763
1.003529 0.264569 2.130919
1.007532 0.263267 2.120433
1.011839 0.262067 2.110766
1.016474 0.260972 2.101945
1.021573 0.260014 2.094230
1.026601 0.259054 2.086500
1.031564 0.258095 2.078773
1.036658 0.257184 2.071436
1.041694 0.256274 2.064108
1.046481 0.255318 2.056410
1.051857 0.254521 2.049990
1.057116 0.253709 2.043445
1.062860 0.253025 2.037938
1.069188 0.252490 2.033630
1.074762 0.251787 2.027966
1.081429 0.251349 2.024439
1.087045 0.250675 2.019015
1.093619 0.250232 2.015441
1.100097 0.249773 2.011746
1.106674 0.249344 2.008288
1.113071 0.248881 2.004558
1.118764 0.248268 1.999626
1.124892 0.247761 1.995538
1.130200 0.247082 1.990070
1.136553 0.246639 1.986507
1.141701 0.245944 1.980904
1.147877 0.245478 1.977156
1.153342 0.244869 1.972244
1.157159 0.243920 1.964607
1.162268 0.243256 1.959253
1.168260 0.242784 1.955455
1.175225 0.242520 1.953327
1.181371 0.242091 1.949876
1.188440 0.241857 1.947986
1.195341 0.241591 1.945849
1.202598 0.241401 1.944317
1.209616 0.241166 1.942421
1.217832 0.241171 1.942463
1.227632 0.241487 1.945012
1.240031 0.242308 1.951618
1.251532 0.242943 1.956733
1.270301 0.244971 1.973070
1.840929 0.352704 2.840782
2.358248 0.448896 3.615544
2.355792 0.445548 3.588579
2.419281 0.454636 3.661772
2.442833 0.456150 3.673971
-3.638493 0.689291 5.349117
-3.619666 0.690002 5.354632
-3.600009 0.690562 5.358983
-3.577671 0.690612 5.359369
-3.555256 0.690648 5.359646
-3.534612 0.691030 5.362614
-3.512061 0.691042 5.362707
-3.489608 0.691074 5.362952
-3.466394 0.690954 5.362023
-3.444417 0.691081 5.363008
-3.421186 0.690956 5.362041
-3.398599 0.690961 5.362077
-3.378398 0.691454 5.365904
-3.361270 0.692587 5.374695
-3.363786 0.697810 5.415230
-3.077244 0.642731 4.987795
-2.078452 0.437105 3.392072
-2.037549 0.431472 3.348360
-2.006457 0.427853 3.320273
-1.979047 0.424973 3.297926
-1.952375 0.422212 3.276503
-1.929566 0.420254 3.261303
-1.909658 0.418903 3.250823
-1.892093 0.418051 3.244210
-1.874307 0.417137 3.237116
-1.856283 0.416156 3.229506
-1.837788 0.415055 3.220958
-1.818546 0.413767 3.210965
-1.802905 0.413285 3.207225
-1.790432 0.413528 3.209110
-1.787020 0.415883 3.227386
-1.783387 0.418223 3.245540
-1.772181 0.418809 3.250087
-1.758862 0.418900 3.250798
-1.748102 0.419608 3.256289
-1.739014 0.420731 3.265006
-1.741389 0.424668 3.295555
-1.770480 0.435235 3.377562
-1.766491 0.437776 3.397280
-1.757897 0.439208 3.408392
-1.746619 0.439987 3.414441
-1.736332 0.441031 3.422543
-1.727057 0.442352 3.432792
-1.718149 0.443790 3.443951
-1.711364 0.445805 3.459590
-1.703775 0.447644 3.473862
-1.696387 0.449568 3.488792
-1.689894 0.451765 3.505840
-1.684343 0.454255 3.525162
-1.680668 0.457300 3.548790
-1.682353 0.461870 3.584259
-1.671235 0.462977 3.592848
-1.642466 0.459170 3.563303
-1.614502 0.455519 3.534973
-1.599149 0.455392 3.533984
-2.327061 0.668913 5.190980
-2.397696 0.695762 5.399331
-2.372691 0.695106 5.394245
-2.346273 0.694020 5.385815
-2.324881 0.694413 5.388868
-2.302369 0.694477 5.389363
-2.279479 0.694427 5.388973
-2.255616 0.694076 5.386251
-2.231903 0.693765 5.383835
-2.211462 0.694475 5.389344
-2.188104 0.694274 5.387786
-2.162729 0.693422 5.381176
-2.148020 0.696008 5.401246
-1.929672 0.631959 4.904203
-1.415781 0.468685 3.637141
-1.386497 0.464017 3.600918
-1.373990 0.464923 3.607946
-1.358488 0.464824 3.607181
-1.342573 0.464580 3.605289
-1.329120 0.465192 3.610039
-1.314684 0.465471 3.612199
-1.299546 0.465504 3.612459
-1.283738 0.465295 3.610840
-1.272685 0.466826 3.622718
-1.261214 0.468238 3.633679
-1.251954 0.470517 3.651359
-1.265377 0.481483 3.736458
-1.226389 0.472531 3.666990
-1.205015 0.470224 3.649089
-1.190191 0.470447 3.650817
-1.175948 0.470908 3.654394
-1.159714 0.470573 3.651797
-1.145657 0.471125 3.656077
-1.131966 0.471844 3.661656
-1.119184 0.472967 3.670374
-1.103359 0.472818 3.669216
-1.094299 0.475604 3.690840
-1.065673 0.469845 3.646145
-1.399939 0.626255 4.859936
-1.500015 0.680991 5.284709
-1.494370 0.688659 5.344214
-1.467844 0.686792 5.329720
-1.451066 0.689498 5.350723
-1.411350 0.681218 5.286470
-1.049476 0.514681 3.994087
-0.888676 0.442930 3.437277
-0.848409 0.429871 3.335937
-0.817292 0.421086 3.267762
-0.796087 0.417195 3.237563
-0.779128 0.415431 3.223877
-0.763249 0.414191 3.214256
-0.746566 0.412462 3.200837
-0.728574 0.409933 3.181208
-0.711125 0.407620 3.163258
-0.695311 0.406174 3.152039
-0.679922 0.404924 3.142342
-0.664362 0.403521 3.131451
-0.648171 0.401670 3.117087
-0.634937 0.401613 3.116647
-0.623988 0.403030 3.127638
-0.611544 0.403521 3.131449
-0.597890 0.403217 3.129091
-0.585124 0.403512 3.131383
-0.572342 0.403810 3.133693
-0.559520 0.404093 3.135889
-0.546682 0.404378 3.138099
-0.533807 0.404648 3.140199
-0.520915 0.404920 3.142309
-0.507784 0.405015 3.143045
-0.494402 0.404909 3.142222
-0.481135 0.404894 3.142109
-0.468165 0.405136 3.143981
-0.455172 0.405371 3.145810
-0.441819 0.405290 3.145178
-0.428993 0.405703 3.148383
-0.416059 0.406036 3.150971
-0.403037 0.406302 3.153035
-0.390512 0.407105 3.159266
-0.377744 0.407703 3.163908
-0.365531 0.408965 3.173701
-0.354067 0.411193 3.190986
-0.345090 0.416600 3.232945
-0.335515 0.421698 3.272512
-0.320309 0.419855 3.258204
-0.305423 0.418282 3.246004
-0.290847 0.417009 3.236121
-0.277074 0.416817 3.234628
-0.263019 0.416158 3.229521
-0.249316 0.416016 3.228416
-0.235463 0.415593 3.225135
-0.221777 0.415431 3.223876
-0.208076 0.415217 3.222217
-0.194659 0.415579 3.225023
-0.181218 0.415941 3.227838
-0.167691 0.416150 3.229455
-0.154347 0.416887 3.235173
-0.141004 0.417771 3.242034
-0.127665 0.418861 3.250497
-0.113988 0.418966 3.251307
-0.099437 0.415454 3.224052
-0.085241 0.412543 3.201461
-0.071447 0.410846 3.188294
-0.057803 0.409429 3.177300
-0.044353 0.408946 3.173553
-0.030912 0.408157 3.167426
-0.017535 0.407672 3.163663
-0.004192 0.407358 3.161229
0.009129 0.406951 3.158066
0.022439 0.406834 3.157160
0.035721 0.406491 3.154499
0.049022 0.406480 3.154417
0.062131 0.405228 3.144699
0.074881 0.402490 3.123450
0.075715 0.346097 2.685819
0.086593 0.344320 2.672034
0.097663 0.343626 2.666648
0.108688 0.342936 2.661292
0.120142 0.343600 2.666447
0.132928 0.347634 2.697752
0.143920 0.346709 2.690571
0.152995 0.341640 2.651231
0.162723 0.338620 2.627795
0.172795 0.336655 2.612550
0.183034 0.335232 2.601509
0.193190 0.333826 2.590593
0.203432 0.332711 2.581944
0.213611 0.331611 2.573410
0.223777 0.330599 2.565556
0.234043 0.329821 2.559519
0.244327 0.329137 2.554207
0.254679 0.328597 2.550016
0.265034 0.328105 2.546199
0.275122 0.327334 2.540213
0.285492 0.326943 2.537184
0.295756 0.326463 2.533459
0.306195 0.326204 2.531445
0.316550 0.325875 2.528893
0.327287 0.325949 2.529469
0.337761 0.325764 2.528033
0.348223 0.325579 2.526597
0.358661 0.325383 2.525077
0.369247 0.325329 2.524657
0.379067 0.324622 2.519168
0.383307 0.319306 2.477912
0.389217 0.315625 2.449350
0.397554 0.314052 2.437146
0.405704 0.312415 2.424438
0.414040 0.310997 2.413439
0.420204 0.308056 2.390609
0.425063 0.304318 2.361603
0.431995 0.302200 2.345171
0.438942 0.300189 2.329562
0.446217 0.298484 2.316333
0.453702 0.296991 2.304742
0.461486 0.295751 2.295123
0.469344 0.294609 2.286258
0.477272 0.293556 2.278086
0.485746 0.292873 2.272788
0.494051 0.292117 2.266922
0.502506 0.291477 2.261954
0.510811 0.290775 2.256507
0.520369 0.290799 2.256695
0.493645 0.270911 2.102354
0.494094 0.266374 2.067147
0.499374 0.264553 2.053017
0.505397 0.263182 2.042375
0.511871 0.262087 2.033880
0.518418 0.261065 2.025949
0.525285 0.260235 2.019507
0.532265 0.259487 2.013698
0.539248 0.258763 2.008081
0.546474 0.258177 2.003532
0.553212 0.257381 1.997357
0.560044 0.256652 1.991702
0.566705 0.255868 1.985613
0.573744 0.255275 1.981012
0.580379 0.254521 1.975163
0.586941 0.253757 1.969236
0.593802 0.253142 1.964464
0.600755 0.252583 1.960124
0.607105 0.251788 1.953958
0.613530 0.251046 1.948199
0.620240 0.250439 1.943484
0.626591 0.249704 1.937779
0.633172 0.249078 1.932927
0.640037 0.248579 1.929053
0.646729 0.248026 1.924760
0.653379 0.247471 1.920450
0.660585 0.247137 1.917862
0.667773 0.246805 1.915285
0.674304 0.246240 1.910904
0.680796 0.245676 1.906520
0.687923 0.245350 1.903997
0.695017 0.245021 1.901440
0.702149 0.244712 1.899045
0.709641 0.244534 1.897665
0.717430 0.244462 1.897104
0.725853 0.244605 1.898210
0.734276 0.244745 1.899295
0.742651 0.244865 1.900231
0.751205 0.245042 1.901601
0.760383 0.245416 1.904508
0.768461 0.245431 1.904623
0.779724 0.246453 1.912551
0.780723 0.244243 1.895400
1.253798 0.388265 3.013061
2.173078 0.666189 5.169838
1.284295 0.389809 3.025042
0.979696 0.294433 2.284894
0.975207 0.290230 2.252275
0.980898 0.289108 2.243570
0.984279 0.287333 2.229797
0.987296 0.285487 2.215468
0.989406 0.283415 2.199393
0.990363 0.281055 2.181076
0.991844 0.278885 2.164239
0.994500 0.277083 2.150251
0.998045 0.275558 2.138420
1.002077 0.274194 2.127836
1.006424 0.272940 2.118101
1.010741 0.271700 2.108475
1.015360 0.270561 2.099641
1.020112 0.269478 2.091233
1.025228 0.268508 2.083711
1.030187 0.267515 2.075998
1.035186 0.266548 2.068495
1.040128 0.265582 2.061004
1.045824 0.264824 2.055120
1.050750 0.263885 2.047833
1.056563 0.263182 2.042376
1.062306 0.262473 2.036875
1.068633 0.261919 2.032574
1.074205 0.261190 2.026916
1.080871 0.260736 2.023395
1.087547 0.260292 2.019948
1.094056 0.259815 2.016247
1.099770 0.259158 2.011149
1.106193 0.258677 2.007415
1.112507 0.258178 2.003542
1.119098 0.257750 2.000223
1.124666 0.257095 1.995137
1.130073 0.256413 1.989846
1.135985 0.255855 1.985514
1.142193 0.255371 1.981760
1.148429 0.254900 1.978106
1.153866 0.254260 1.973141
1.157720 0.253283 1.965558
1.162479 0.252517 1.959610
1.168627 0.252061 1.956070
1.174904 0.251638 1.952793
1.181785 0.251351 1.950560
1.187865 0.250898 1.947045
1.193785 0.250417 1.943317
1.201020 0.250217 1.941766
1.209038 0.250182 1.941493
1.217253 0.250188 1.941538
1.226730 0.250451 1.943582
1.238281 0.251132 1.948864
1.248610 0.251557 1.952165
1.263467 0.252883 1.962455
1.302268 0.258953 2.009560
2.490719 0.492073 3.818641
2.397457 0.470605 3.652047
2.440493 0.475996 3.693878
2.461325 0.477014 3.701782
-3.593500 0.705615 5.282971
-3.574901 0.706342 5.288411
-3.554582 0.706736 5.291359
-3.533266 0.706935 5.292851
-3.510237 0.706792 5.291779
-3.487325 0.706671 5.290871
-3.465946 0.706860 5.292292
-3.443714 0.706878 5.292421
-3.421045 0.706805 5.291875
-3.400908 0.707257 5.295264
-3.378074 0.707152 5.294472
-3.356747 0.707362 5.296045
-3.332354 0.706925 5.292772
-3.309591 0.706829 5.292059
-3.248676 0.698530 5.229919
-2.089575 0.452371 3.386917
-2.057390 0.448468 3.357699
-2.030463 0.445666 3.336716
-2.001051 0.442274 3.311326
-1.973704 0.439295 3.289022
-1.947458 0.436521 3.268251
-1.924911 0.434542 3.253434
-1.906723 0.433526 3.245826
-1.889181 0.432643 3.239216
-1.871419 0.431696 3.232128
-1.853865 0.430784 3.225299
-1.835152 0.429588 3.216339
-1.817739 0.428679 3.209539
-1.802728 0.428328 3.206911
-1.789931 0.428502 3.208211
-1.784980 0.430571 3.223700
-1.782605 0.433298 3.244116
-1.771769 0.433994 3.249331
-1.760597 0.434618 3.254005
-1.749303 0.435222 3.258526
-1.740146 0.436372 3.267132
-1.739751 0.439754 3.292454
-1.759880 0.448420 3.357340
-1.763293 0.452933 3.391129
-1.756052 0.454761 3.404814
-1.748248 0.456472 3.417624
-1.737787 0.457512 3.425411
-1.728915 0.458991 3.436484
-1.720613 0.460648 3.448890
-1.712305 0.462331 3.461493
-1.705476 0.464446 3.477328
-1.697652 0.466325 3.491393
-1.691366 0.468662 3.508894
-1.686450 0.471424 3.529573
-1.685887 0.475463 3.559810
-1.687836 0.480289 3.595941
-1.676334 0.481340 3.603811
-1.645009 0.476666 3.568820
-1.630129 0.476715 3.569187
-1.654238 0.488274 3.655727
-2.371251 0.706495 5.289554
-2.364344 0.711126 5.324227
-2.345477 0.712214 5.332374
-2.322063 0.711929 5.330239
-2.300893 0.712333 5.333268
-2.278690 0.712422 5.333935
-2.255529 0.712211 5.332352
-2.231913 0.711850 5.329649
-2.208444 0.711529 5.327248
-2.184829 0.711154 5.324441
-2.162914 0.711331 5.325761
-2.136173 0.709907 5.315101
-2.114691 0.710219 5.317441
-2.093683 0.710699 5.321033
-1.482395 0.508649 3.808273
-1.388875 0.481779 3.607095
-1.366738 0.479349 3.588905
-1.352748 0.479754 3.591940
-1.339931 0.480590 3.598194
-1.327871 0.481719 3.606646
-1.314815 0.482509 3.612560
-1.299447 0.482458 3.612184
-1.285830 0.483065 3.616723
-1.276002 0.485126 3.632158
-1.262310 0.485751 3.636837
-1.241687 0.483691 3.621416
-1.508049 0.594765 4.453030
-1.232925 0.492389 3.686534
-1.208479 0.488788 3.659577
-1.194192 0.489257 3.663089
-1.179000 0.489363 3.663877
-1.162657 0.488987 3.661061
-1.148627 0.489587 3.665554
-1.134651 0.490226 3.670343
-1.119854 0.490524 3.672571
-1.108289 0.492265 3.685611
-1.169720 0.526940 3.945219
-1.490792 0.681267 5.100669
-1.529185 0.709041 5.308616
-1.490760 0.701493 5.252104
-1.474666 0.704384 5.273749
-1.452815 0.704571 5.275151
-1.432891 0.705713 5.283703
-1.389523 0.695163 5.204713
-1.000480 0.508561 3.807620
-0.869889 0.449392 3.364613
-0.835569 0.438818 3.285450
-0.810521 0.432840 3.240689
-0.792026 0.430216 3.221047
-0.776470 0.429126 3.212881
-0.760645 0.427844 3.203289
-0.744276 0.426206 3.191020
-0.727014 0.423986 3.174397
-0.710302 0.422009 3.159597
-0.694849 0.420719 3.149942
-0.679534 0.419465 3.140549
-0.664171 0.418130 3.130553
-0.648734 0.416693 3.119798
-0.635980 0.416956 3.121766
-0.624624 0.418166 3.130827
-0.611484 0.418208 3.131138
-0.597959 0.417983 3.129452
-0.584878 0.418065 3.130069
-0.572101 0.418373 3.132374
-0.559284 0.418666 3.134566
-0.546381 0.418907 3.136372
-0.533445 0.419134 3.138071
-0.520562 0.419415 3.140177
-0.507649 0.419686 3.142205
-0.494710 0.419950 3.144179
-0.481399 0.419904 3.143836
-0.468107 0.419871 3.143594
-0.454861 0.419881 3.143662
-0.441854 0.420116 3.145427
-0.428825 0.420346 3.147151
-0.416069 0.420866 3.151042
-0.403164 0.421266 3.154033
-0.390376 0.421818 3.158166
-0.377304 0.422091 3.160214
-0.365038 0.423321 3.169418
-0.353254 0.425222 3.183658
-0.342173 0.428156 3.205617
-0.334238 0.435427 3.260056
-0.320051 0.434829 3.255579
-0.305387 0.433499 3.245628
-0.291069 0.432559 3.238586
-0.277016 0.431940 3.233954
-0.263190 0.431629 3.231627
-0.249307 0.431185 3.228299
-0.235613 0.431037 3.227193
-0.221772 0.430584 3.223797
-0.208222 0.430674 3.224476
-0.194722 0.430887 3.226066
-0.181309 0.431341 3.229469
-0.167871 0.431803 3.232924
-0.154440 0.432364 3.237123
-0.141178 0.433554 3.246039
-0.127928 0.435044 3.257191
-0.114230 0.435180 3.258213
-0.099803 0.432202 3.235910
-0.085357 0.428181 3.205806
-0.071485 0.426070 3.190000
-0.057880 0.424941 3.181547
-0.044379 0.424123 3.175427
-0.030930 0.423300 3.169264
-0.017557 0.423082 3.167635
-0.004194 0.422468 3.163037
0.009139 0.422245 3.161362
0.022451 0.421905 3.158822
0.035734 0.421479 3.155633
0.049025 0.421345 3.154628
0.062102 0.419825 3.143249
0.074831 0.416903 3.121370
0.075714 0.358725 2.685790
0.086533 0.356640 2.670177
0.097500 0.355574 2.662194
0.108613 0.355206 2.659443
0.120078 0.355950 2.665012
0.133195 0.361047 2.703170
0.143517 0.358358 2.683044
0.152857 0.353791 2.648848
0.162635 0.350790 2.626381
0.172710 0.348771 2.611262
0.182907 0.347228 2.599709
0.193091 0.345834 2.589276
0.203304 0.344639 2.580325
0.213518 0.343567 2.572299
0.223796 0.342696 2.565776
0.234061 0.341886 2.559716
0.244325 0.341148 2.554186
0.254565 0.340438 2.548874
0.264852 0.339847 2.544448
0.275004 0.339136 2.539127
0.285477 0.338858 2.537045
0.295601 0.338202 2.532130
0.306073 0.337976 2.530440
0.316574 0.337796 2.529091
0.327064 0.337615 2.527740
0.337531 0.337424 2.526306
0.347986 0.337233 2.524873
0.358417 0.337030 2.523357
0.369193 0.337154 2.524287
0.378057 0.335574 2.512455
0.381372 0.329289 2.465401
0.388324 0.326394 2.443728
0.396897 0.324977 2.433119
0.405177 0.323397 2.421287
0.413252 0.321735 2.408843
0.419075 0.318442 2.384187
0.424403 0.314936 2.357935
0.431459 0.312842 2.342263
0.438648 0.310937 2.327999
0.445985 0.309218 2.315128
0.453783 0.307886 2.305154
0.461386 0.306479 2.294622
0.469277 0.305318 2.285930
0.477319 0.304300 2.278307
0.485552 0.303442 2.271880
0.493723 0.302579 2.265418
0.502547 0.302141 2.262139
0.510674 0.301307 2.255900
0.507782 0.294123 2.202108
0.488186 0.277694 2.079105
0.492917 0.275439 2.062222
0.498445 0.273700 2.049200
0.504189 0.272136 2.037491
0.511047 0.271216 2.030606
0.517660 0.270199 2.022988
0.524627 0.269396 2.016976
0.531487 0.268565 2.010755
0.538690 0.267930 2.006003
0.545498 0.267122 1.999952
0.552293 0.266332 1.994039
0.559137 0.265589 1.988478
0.565788 0.264778 1.982401
0.572380 0.263963 1.976301
0.579439 0.263384 1.971965
0.586333 0.262747 1.967197
0.592959 0.262009 1.961674
0.599765 0.261371 1.956893
0.606112 0.260552 1.950764
0.612550 0.259794 1.945087
0.619388 0.259223 1.940812
0.625586 0.258403 1.934671
0.632297 0.257813 1.930255
0.639013 0.257240 1.925967
0.646323 0.256917 1.923551
0.652967 0.256342 1.919241
0.660007 0.255933 1.916184
0.666743 0.255419 1.912330
0.673887 0.255071 1.909724
0.680376 0.254486 1.905346
0.687501 0.254150 1.902828
0.694591 0.253809 1.900275
0.701658 0.253467 1.897717
0.708737 0.253137 1.895247
0.716422 0.253029 1.894438
0.724152 0.252939 1.893762
0.733086 0.253267 1.896218
0.741482 0.253403 1.897242
0.749887 0.253540 1.898265
0.759116 0.253950 1.901334
0.767784 0.254165 1.902946
0.776191 0.254291 1.903885
0.784724 0.254455 1.905112
0.799642 0.256664 1.921656
1.285729 0.408546 3.058801
1.002223 0.315298 2.360646
0.971618 0.302663 2.266053
0.971193 0.299585 2.243005
0.978426 0.298905 2.237916
0.981748 0.297055 2.224062
0.984517 0.295074 2.209232
0.986377 0.292861 2.192660
0.987208 0.290386 2.174129
0.989997 0.288527 2.160209
0.993074 0.286785 2.147168
0.996715 0.285236 2.135571
1.001102 0.283926 2.125765
1.005745 0.282711 2.116671
1.010057 0.281426 2.107048
1.014364 0.280162 2.097583
1.019539 0.279157 2.090060
1.024531 0.278120 2.082293
1.029613 0.277124 2.074841
1.034611 0.276123 2.067346
1.039552 0.275124 2.059863
1.044332 0.274099 2.052189
1.050173 0.273367 2.046707
1.055984 0.272639 2.041257
1.061878 0.271944 2.036056
1.068051 0.271331 2.031468
1.073941 0.270657 2.026417
1.080287 0.270107 2.022301
1.086962 0.269647 2.018861
1.093469 0.269154 2.015165
1.100021 0.268679 2.011607
1.106504 0.268194 2.007980
1.111916 0.267459 2.002479
1.118506 0.267017 1.999164
1.124270 0.266385 1.994436
1.130085 0.265775 1.989867
1.136500 0.265314 1.986413
1.142713 0.264812 1.982661
1.148954 0.264325 1.979010
1.154649 0.263720 1.974479
1.157613 0.262504 1.965377
1.162962 0.261842 1.960423
1.169170 0.261382 1.956979
1.175441 0.260942 1.953686
1.181406 0.260441 1.949935
1.187264 0.259924 1.946059
1.193438 0.259482 1.942752
1.200417 0.259220 1.940790
1.208432 0.259184 1.940521
1.216646 0.259191 1.940570
1.225054 0.259238 1.940928
1.235203 0.259651 1.944020
1.244881 0.259961 1.946335
1.257122 0.260797 1.952600
1.270074 0.261770 1.959881
1.285973 0.263333 1.971588
2.444499 0.497354 3.723707
2.502758 0.505957 3.788120
2.475385 0.497250 3.722928
-3.545572 0.720721 5.212510
-3.527265 0.721472 5.217943
-3.508045 0.722045 5.222084
-3.486155 0.722072 5.222278
-3.464266 0.722099 5.222477
-3.441649 0.721974 5.221572
-3.419677 0.721984 5.221642
-3.397736 0.722000 5.221760
-3.378409 0.722576 5.225924
-3.356337 0.722568 5.225867
-3.334106 0.722525 5.225560
-3.314578 0.723072 5.229515
-3.303451 0.725471 5.246865
-3.284119 0.726089 5.251330
-2.127672 0.473602 3.425256
-2.066344 0.463094 3.349263
-2.046238 0.461744 3.339498
-2.023559 0.459791 3.325370
-1.995494 0.456578 3.302131
-1.968316 0.453524 3.280045
-1.941546 0.450521 3.258329
-1.920138 0.448729 3.245368
-1.902319 0.447756 3.238330
-1.884575 0.446787 3.231318
-1.867243 0.445901 3.224916
-1.850122 0.445054 3.218788
-1.834341 0.444519 3.214917
-1.818374 0.443930 3.210660
-1.803881 0.443695 3.208961
-1.791998 0.444104 3.211915
-1.783472 0.445357 3.220977
-1.782131 0.448437 3.243253
-1.772525 0.449469 3.250716
-1.760457 0.449888 3.253746
-1.750113 0.450757 3.260035
-1.741751 0.452155 3.270144
-1.741672 0.455742 3.296091
-1.753593 0.462553 3.345345
-1.757859 0.467438 3.380680
-1.753927 0.470206 3.400694
-1.748145 0.472519 3.417424
-1.740270 0.474300 3.430304
-1.731935 0.475984 3.442488
-1.723062 0.477548 3.453799
-1.715020 0.479371 3.466981
-1.707897 0.481484 3.482265
-1.699137 0.483169 3.494447
-1.691812 0.485294 3.509820
-1.688534 0.488628 3.533933
-1.685372 0.492056 3.558721
-1.686957 0.496943 3.594068
-1.676775 0.498421 3.604759
-1.666705 0.499960 3.615889
-1.663689 0.503663 3.642669
-2.126639 0.649815 4.699692
-2.344031 0.722978 5.228834
-2.336438 0.727479 5.261385
-2.319202 0.729035 5.272639
-2.298862 0.729636 5.276983
-2.278094 0.730111 5.280422
-2.255130 0.729885 5.278785
-2.231806 0.729537 5.276268
-2.208434 0.729166 5.273584
-2.184701 0.728667 5.269974
-2.161838 0.728450 5.268411
-2.138259 0.727986 5.265053
-2.110740 0.726156 5.251820
-2.084605 0.724769 5.241786
-2.058860 0.723489 5.232531
-1.982342 0.704147 5.092638
-1.595481 0.572936 4.143678
-1.408099 0.511246 3.697514
-1.351914 0.496343 3.589725
-1.337985 0.496791 3.592968
-1.328066 0.498755 3.607176
-1.316049 0.499968 3.615949
-1.301270 0.500148 3.617251
-1.290476 0.501882 3.629792
-1.281528 0.504385 3.647889
-1.266911 0.504689 3.650093
-1.336447 0.538937 3.897786
-1.693797 0.691547 5.001515
-1.257496 0.519886 3.760003
-1.213852 0.508251 3.675848
-1.197820 0.508025 3.674216
-1.181496 0.507668 3.671635
-1.166269 0.507779 3.672435
-1.152914 0.508719 3.679236
-1.139382 0.509605 3.685645
-1.128229 0.511595 3.700037
-1.195113 0.549523 3.974342
-1.572899 0.733517 5.305057
-1.519722 0.718943 5.199651
-1.499021 0.719531 5.203900
-1.477923 0.719942 5.206879
-1.456932 0.720419 5.210327
-1.436414 0.721148 5.215600
-1.416742 0.722331 5.224154
-1.379573 0.714490 5.167444
-0.926697 0.487644 3.526815
-0.854271 0.456864 3.304202
-0.826766 0.449485 3.250835
-0.806465 0.445840 3.224475
-0.789746 0.444084 3.211776
-0.774403 0.443055 3.204328
-0.758690 0.441772 3.195053
-0.742873 0.440382 3.185002
-0.726523 0.438620 3.172253
-0.710030 0.436703 3.158390
-0.694831 0.435523 3.149859
-0.680047 0.434564 3.142917
-0.664387 0.432995 3.131572
-0.649322 0.431758 3.122625
-0.637105 0.432402 3.127287
-0.625196 0.433288 3.133693
-0.611805 0.433162 3.132784
-0.598245 0.432909 3.130951
-0.585470 0.433225 3.133238
-0.572289 0.433248 3.133406
-0.559468 0.433551 3.135596
-0.546630 0.433856 3.137800
-0.533755 0.434145 3.139894
-0.520710 0.434308 3.141072
-0.507447 0.434292 3.140956
-0.494367 0.434437 3.141999
-0.481413 0.434703 3.143924
-0.468250 0.434790 3.144553
-0.454806 0.434614 3.143280
-0.441546 0.434608 3.143237
-0.428784 0.435107 3.146849
-0.415890 0.435500 3.149689
-0.403211 0.436151 3.154396
-0.390103 0.436367 3.155958
-0.377221 0.436859 3.159521
-0.364709 0.437833 3.166564
-0.352513 0.439274 3.176983
-0.340732 0.441365 3.192111
-0.332012 0.447758 3.238347
-0.319923 0.449960 3.254271
-0.305522 0.448964 3.247063
-0.291216 0.448017 3.240221
-0.277228 0.447493 3.236429
-0.263170 0.446794 3.231375
-0.249470 0.446662 3.230416
-0.235597 0.446186 3.226974
-0.221915 0.446034 3.225874
-0.208340 0.446092 3.226298
-0.194915 0.446503 3.229266
-0.181384 0.446714 3.230793
-0.168065 0.447525 3.236656
-0.154500 0.447765 3.238393
-0.141134 0.448684 3.245044
-0.127959 0.450472 3.257970
-0.114376 0.451083 3.262392
-0.100220 0.449288 3.249411
-0.085443 0.443706 3.209037
-0.071528 0.441340 3.191926
-0.057939 0.440351 3.184775
-0.044438 0.439640 3.179633
-0.030961 0.438659 3.172536
-0.017567 0.438228 3.169418
-0.004198 0.437796 3.166294
0.009150 0.437650 3.165237
0.022458 0.436909 3.159883
0.035769 0.436744 3.158686
0.049052 0.436428 3.156404
0.062161 0.435025 3.146257
0.074811 0.431464 3.120503
0.075660 0.371095 2.683888
0.086472 0.368938 2.668287
0.097431 0.367835 2.660310
0.108536 0.367455 2.657562
0.120024 0.368320 2.663822
0.133004 0.373225 2.699298
0.142730 0.368944 2.668335
0.152660 0.365777 2.645428
0.162591 0.363044 2.625664
0.172722 0.361079 2.611448
0.182778 0.359202 2.597876
0.192955 0.357761 2.587452
0.203183 0.356563 2.578787
0.213368 0.355415 2.570489
0.223683 0.354585 2.564486
0.233945 0.353751 2.558455
0.244153 0.352913 2.552393
0.254556 0.352415 2.548790
0.264666 0.351568 2.542665
0.274865 0.350901 2.537843
0.285277 0.350546 2.535271
0.295529 0.350027 2.531521
0.305860 0.349634 2.528674
0.316354 0.349447 2.527328
0.326836 0.349261 2.525979
0.337296 0.349063 2.524549
0.347744 0.348865 2.523118
0.358215 0.348702 2.521933
0.368774 0.348631 2.521421
0.376523 0.345982 2.502266
0.379867 0.339540 2.455676
0.387661 0.337312 2.439557
0.396236 0.335861 2.429068
0.404606 0.334313 2.417872
0.412393 0.332373 2.403836
0.417602 0.328497 2.375808
0.423927 0.325660 2.355288
0.430988 0.323505 2.339704
0.438293 0.321627 2.326117
0.445560 0.319802 2.312921
0.453421 0.318474 2.303313
0.461277 0.317197 2.294080
0.469222 0.316033 2.285664
0.477461 0.315110 2.278987
0.485388 0.314021 2.271112
0.493487 0.313084 2.264332
0.502605 0.312816 2.262399
0.510510 0.311818 2.255177
0.490651 0.294208 2.127817
0.487063 0.286812 2.074326
0.491842 0.284517 2.057726
0.497611 0.282864 2.045770
0.503815 0.281510 2.035983
0.510389 0.280406 2.027992
0.516890 0.279297 2.019977
0.523767 0.278425 2.013671
0.530644 0.277581 2.007564
0.537791 0.276902 2.002655
0.544281 0.275912 1.995490
0.551369 0.275250 1.990703
0.558061 0.274413 1.984649
0.564866 0.273655 1.979170
0.571790 0.272977 1.974264
0.578494 0.272214 1.968748
0.585359 0.271547 1.963927
0.592009 0.270801 1.958530
0.598963 0.270213 1.954275
0.605275 0.269355 1.948068
0.611976 0.268690 1.943262
0.618391 0.267919 1.937689
0.625181 0.267329 1.933419
0.631887 0.266719 1.929004
0.638606 0.266129 1.924739
0.645284 0.265537 1.920459
0.652558 0.265202 1.918038
0.659113 0.264587 1.913589
0.665672 0.263988 1.909258
0.672849 0.263646 1.906781
0.679950 0.263282 1.904150
0.687070 0.262935 1.901636
0.694158 0.262582 1.899089
0.701222 0.262229 1.896536
0.708208 0.261856 1.893834
0.715906 0.261751 1.893073
0.723416 0.261580 1.891838
0.731474 0.261609 1.892047
0.740240 0.261888 1.894064
0.748850 0.262106 1.895642
0.757181 0.262223 1.896486
0.766342 0.262621 1.899371
0.775934 0.263158 1.903254
0.784919 0.263481 1.905585
0.791699 0.263064 1.902569
0.890799 0.293023 2.119247
0.952794 0.310303 2.244221
0.962455 0.310367 2.244683
0.967907 0.309085 2.235415
0.974253 0.308111 2.228371
0.979212 0.306721 2.218318
0.982408 0.304811 2.204500
0.984021 0.302449 2.187422
0.985199 0.300000 2.169704
0.988427 0.298213 2.156784
0.991625 0.296450 2.144034
0.995436 0.294901 2.132831
0.999828 0.293550 2.123060
1.004292 0.292244 2.113614
1.008988 0.291028 2.104819
1.013783 0.289861 2.096380
1.018656 0.288737 2.088249
1.023436 0.287606 2.080068
1.028024 0.286440 2.071639
1.033016 0.285406 2.064159
1.038474 0.284517 2.057727
1.043745 0.283592 2.051035
1.049585 0.282835 2.045561
1.055394 0.282082 2.040117
1.061312 0.281370 2.034970
1.067459 0.280730 2.030341
1.073459 0.280062 2.025508
1.079692 0.279465 2.021188
1.086365 0.278990 2.017753
1.092871 0.278480 2.014063
1.099421 0.277988 2.010511
1.105134 0.277295 2.005494
1.111315 0.276728 2.001395
1.117903 0.276271 1.998086
1.124227 0.275755 1.994359
1.130043 0.275124 1.989792
1.136449 0.274644 1.986325
1.142443 0.274073 1.982193
1.149264 0.273707 1.979545
1.155203 0.273137 1.975426
1.158171 0.271879 1.966325
1.163565 0.271204 1.961440
1.169975 0.270773 1.958325
1.176085 0.270279 1.954756
1.182241 0.269803 1.951313
1.187871 0.269214 1.947054
1.193735 0.268686 1.943235
1.199802 0.268211 1.939796
1.207508 0.268106 1.939036
1.215713 0.268112 1.939081
1.223239 0.267970 1.938051
1.232156 0.268132 1.939225
1.241777 0.268444 1.941482
1.250014 0.268455 1.941560
1.262171 0.269302 1.947687
1.273231 0.269905 1.952052
1.467126 0.309010 2.234873
2.571354 0.538130 3.891946
2.526738 0.525439 3.800163
-3.505039 0.736718 5.152921
-3.484689 0.737010 5.154959
-3.464553 0.737350 5.157342
-3.442927 0.737376 5.157523
-3.418080 0.736708 5.152850
-3.395642 0.736554 5.151772
-3.374215 0.736619 5.152225
-3.355578 0.737297 5.156970
-3.336485 0.737884 5.161072
-3.314680 0.737874 5.161005
-3.292860 0.737861 5.160915
-3.272153 0.738099 5.162579
-3.262359 0.740818 5.181599
-2.748296 0.628292 4.394545
-2.085486 0.480003 3.357344
-2.063050 0.478084 3.343924
-2.035886 0.475036 3.322603
-2.013757 0.473128 3.309261
-1.989611 0.470717 3.292395
-1.962324 0.467524 3.270059
-1.936341 0.464598 3.249594
-1.915337 0.462833 3.237253
-1.897714 0.461866 3.230491
-1.880598 0.461010 3.224499
-1.864934 0.460499 3.220928
-1.848887 0.459886 3.216639
-1.834926 0.459786 3.215943
-1.818566 0.459080 3.210999
-1.805105 0.459100 3.211140
-1.792694 0.459389 3.213163
-1.783124 0.460416 3.220349
-1.779012 0.462880 3.237577
-1.771750 0.464555 3.249295
-1.762112 0.465629 3.256805
-1.752007 0.466595 3.263562
-1.743593 0.468030 3.273603
-1.744448 0.471996 3.301344
-1.752679 0.478038 3.343603
-1.753884 0.482246 3.373034
-1.751132 0.485426 3.395275
-1.748872 0.488796 3.418845
-1.743575 0.491366 3.436820
-1.734913 0.493022 3.448407
-1.726562 0.494796 3.460815
