ply
format ascii 1.0
comment generated by convert_depth_to_ply.py
element vertex 1741
property float x
property float y
property float z
end_header
0.138570 0.066082 0.901504
0.141502 0.066173 0.902745
0.144188 0.066148 0.902405
0.146855 0.066115 0.901959
0.149710 0.066167 0.902660
0.152475 0.066177 0.902807
0.155138 0.066144 0.902352
0.158007 0.066198 0.903093
0.160760 0.066203 0.903155
0.163641 0.066259 0.903923
0.166387 0.066260 0.903933
0.169037 0.066223 0.903425
0.172000 0.066308 0.904584
0.174663 0.066276 0.904153
0.177651 0.066367 0.905390
0.180295 0.066329 0.904869
0.183287 0.066417 0.906077
0.185927 0.066378 0.905538
0.188926 0.066466 0.906737
0.191873 0.066533 0.907656
0.194567 0.066512 0.907366
0.197527 0.066581 0.908309
0.200215 0.066558 0.907994
0.203187 0.066628 0.908956
0.205857 0.066599 0.908563
0.208475 0.066554 0.907950
0.211500 0.066639 0.909104
0.214112 0.066593 0.908476
0.217142 0.066676 0.909614
0.219748 0.066629 0.908972
0.222362 0.066586 0.908376
0.225384 0.066664 0.909441
0.227985 0.066617 0.908804
0.231018 0.066696 0.909882
0.233613 0.066648 0.909231
0.236663 0.066730 0.910346
0.239239 0.066678 0.909631
0.241825 0.066629 0.908970
0.244863 0.066705 0.910003
0.247439 0.066655 0.909319
0.249998 0.066601 0.908585
0.253053 0.066679 0.909651
0.255614 0.066627 0.908938
0.258163 0.066573 0.908197
0.260734 0.066525 0.907547
0.263754 0.066592 0.908459
0.266298 0.066538 0.907731
0.268819 0.066480 0.906938
0.271351 0.066426 0.906199
0.273859 0.066367 0.905393
0.276379 0.066312 0.904643
0.278887 0.066255 0.903871
0.281380 0.066196 0.903065
0.283881 0.066140 0.902299
0.286355 0.066079 0.901464
0.288843 0.066022 0.900688
0.291517 0.066008 0.900501
0.294352 0.066031 0.900813
0.296818 0.065971 0.899995
0.299856 0.066039 0.900913
0.302312 0.065978 0.900082
0.305352 0.066044 0.900989
0.307808 0.065984 0.900173
0.310841 0.066048 0.901042
0.313302 0.065990 0.900255
0.316322 0.066050 0.901071
0.318776 0.065992 0.900275
0.321809 0.066053 0.901113
0.324225 0.065988 0.900227
0.327287 0.066055 0.901131
0.330013 0.066053 0.901106
0.332744 0.066052 0.901092
0.335784 0.066112 0.901909
0.338558 0.066119 0.902005
0.341622 0.066182 0.902865
0.344304 0.066170 0.902709
0.347362 0.066231 0.903534
0.350428 0.066292 0.904369
0.353510 0.066355 0.905229
0.356565 0.066412 0.906010
0.359654 0.066475 0.906862
0.362715 0.066531 0.907633
0.365810 0.066593 0.908476
0.368887 0.066651 0.909262
0.371979 0.066710 0.910072
0.375084 0.066771 0.910903
0.378160 0.066826 0.911650
0.381271 0.066886 0.912473
0.384352 0.066940 0.913211
0.387293 0.066969 0.913608
0.390385 0.067024 0.914355
0.393595 0.067098 0.915362
0.396698 0.067153 0.916111
0.399824 0.067211 0.916902
0.402945 0.067267 0.917669
0.405690 0.067260 0.917576
0.409205 0.067380 0.919216
0.411915 0.067367 0.919035
0.415061 0.067425 0.919823
0.418176 0.067477 0.920534
0.421302 0.067530 0.921258
0.424891 0.067656 0.922978
0.428849 0.067839 0.925473
0.432443 0.067962 0.927154
0.436003 0.068078 0.928740
0.439186 0.068135 0.929509
0.442330 0.068184 0.930187
0.445493 0.068236 0.930895
0.448229 0.068223 0.930709
-0.430656 0.067498 0.884505
-0.428504 0.067582 0.885607
-0.426303 0.067660 0.886621
-0.423346 0.067617 0.886067
-0.421129 0.067693 0.887063
-0.418084 0.067636 0.886318
-0.415140 0.067595 0.885777
-0.412108 0.067539 0.885041
-0.409767 0.067596 0.885788
-0.406884 0.067564 0.885368
-0.403859 0.067508 0.884630
-0.401648 0.067587 0.885677
-0.399330 0.067650 0.886499
-0.397103 0.067729 0.887537
-0.394139 0.067683 0.886932
-0.392600 0.067883 0.889545
-0.390320 0.067956 0.890505
-0.387903 0.068006 0.891164
-0.384322 0.067852 0.889138
-0.381058 0.067751 0.887822
-0.377319 0.067564 0.885375
-0.374276 0.067500 0.884535
-0.370745 0.067347 0.882523
-0.367730 0.067285 0.881718
-0.364796 0.067238 0.881098
-0.362225 0.067257 0.881350
-0.359239 0.067199 0.880588
-0.356502 0.067187 0.880434
-0.353507 0.067126 0.879631
-0.351168 0.067189 0.880461
-0.348203 0.067133 0.879725
-0.345602 0.067147 0.879904
-0.342618 0.067086 0.879101
-0.339890 0.067074 0.878949
-0.336929 0.067016 0.878186
-0.334565 0.067076 0.878980
-0.332233 0.067144 0.879871
-0.329308 0.067093 0.879193
-0.326936 0.067154 0.879994
-0.324601 0.067224 0.880908
-0.322256 0.067292 0.881809
-0.319848 0.067349 0.882553
-0.317449 0.067409 0.883333
-0.315430 0.067551 0.885193
-0.313298 0.067670 0.886764
-0.310900 0.067735 0.887604
-0.308485 0.067796 0.888410
-0.306086 0.067862 0.889277
-0.303680 0.067928 0.890137
-0.301266 0.067993 0.890992
-0.299191 0.068136 0.892871
-0.296949 0.068244 0.894282
-0.294497 0.068305 0.895082
-0.292045 0.068367 0.895897
-0.289579 0.068428 0.896685
-0.287101 0.068486 0.897446
-0.284635 0.068548 0.898265
-0.282144 0.068605 0.899016
-0.279660 0.068666 0.899807
-0.277161 0.068723 0.900563
-0.274715 0.068796 0.901509
-0.272203 0.068852 0.902253
-0.269680 0.068908 0.902977
-0.267168 0.068967 0.903754
-0.264584 0.069009 0.904301
-0.262060 0.069067 0.905066
-0.259054 0.068998 0.904165
-0.256091 0.068940 0.903396
-0.253472 0.068973 0.903836
-0.251375 0.069151 0.906168
-0.249685 0.069447 0.910038
-0.247634 0.069647 0.912660
-0.245109 0.069717 0.913577
-0.242511 0.069767 0.914239
-0.239920 0.069821 0.914944
-0.237312 0.069871 0.915597
-0.234710 0.069924 0.916291
-0.231638 0.069836 0.915146
-0.229022 0.069886 0.915795
-0.226402 0.069935 0.916444
-0.224214 0.070121 0.918878
-0.221584 0.070172 0.919542
-0.219368 0.070357 0.921964
-0.217129 0.070538 0.924346
-0.214488 0.070593 0.925060
-0.212211 0.070770 0.927383
-0.209532 0.070816 0.927988
-0.206848 0.070862 0.928587
-0.204159 0.070907 0.929178
-0.201071 0.070813 0.927947
-0.198373 0.070856 0.928503
-0.195292 0.070761 0.927258
-0.192587 0.070801 0.927793
-0.189518 0.070707 0.926556
-0.186814 0.070749 0.927101
-0.184106 0.070790 0.927638
-0.181039 0.070692 0.926356
-0.178327 0.070732 0.926877
-0.175265 0.070631 0.925565
-0.172541 0.070667 0.926029
-0.169489 0.070567 0.924717
-0.166443 0.070466 0.923394
-0.163413 0.070368 0.922117
-0.160584 0.070355 0.921945
-0.157658 0.070298 0.921200
-0.154644 0.070200 0.919909
-0.151626 0.070096 0.918548
-0.148810 0.070083 0.918376
-0.145902 0.070025 0.917624
-0.142901 0.069920 0.916249
-0.139909 0.069816 0.914874
-0.136925 0.069710 0.913493
-0.133962 0.069612 0.912206
-0.131128 0.069577 0.911754
-0.128255 0.069521 0.911013
-0.125306 0.069419 0.909677
-0.122484 0.069385 0.909235
-0.119642 0.069338 0.908612
-0.116700 0.069229 0.907188
-0.113988 0.069255 0.907523
-0.111153 0.069205 0.906875
-0.108343 0.069169 0.906399
-0.105628 0.069193 0.906712
-0.102708 0.069081 0.905244
-0.099992 0.069103 0.905538
-0.097159 0.069043 0.904755
-0.094369 0.069012 0.904339
-0.091641 0.069025 0.904510
-0.088819 0.068966 0.903738
-0.086039 0.068937 0.903358
-0.083319 0.068956 0.903605
-0.080597 0.068974 0.903841
-0.077872 0.068991 0.904070
-0.075146 0.069008 0.904292
-0.072418 0.069024 0.904506
-0.069687 0.069040 0.904709
-0.066955 0.069055 0.904906
-0.064213 0.069060 0.904977
-0.061365 0.068948 0.903510
-0.058634 0.068961 0.903681
-0.055900 0.068974 0.903843
-0.053165 0.068986 0.903999
-0.050350 0.068889 0.902736
-0.047598 0.068873 0.902520
-0.044864 0.068883 0.902649
-0.042123 0.068882 0.902637
-0.039386 0.068888 0.902719
-0.036585 0.068774 0.901228
-0.033853 0.068782 0.901324
-0.031119 0.068788 0.901413
-0.028385 0.068794 0.901493
-0.025650 0.068800 0.901564
-0.022874 0.068682 0.900023
-0.020139 0.068675 0.899923
-0.017408 0.068678 0.899970
-0.014676 0.068681 0.900008
-0.011944 0.068683 0.900038
-0.009194 0.068556 0.898363
-0.006467 0.068552 0.898316
-0.003739 0.068552 0.898321
-0.001012 0.068552 0.898317
0.001715 0.068551 0.898306
0.004442 0.068550 0.898285
0.007169 0.068547 0.898257
0.009896 0.068545 0.898220
0.012622 0.068541 0.898175
0.015351 0.068548 0.898259
0.018109 0.068666 0.899815
0.020839 0.068661 0.899745
0.023569 0.068655 0.899666
0.026309 0.068677 0.899949
0.029083 0.068775 0.901243
0.031815 0.068767 0.901140
0.034558 0.068781 0.901319
0.037350 0.068884 0.902669
0.040085 0.068874 0.902540
0.042819 0.068864 0.902403
0.045559 0.068865 0.902423
0.048377 0.068976 0.903868
0.051111 0.068963 0.903705
0.053845 0.068950 0.903536
0.056577 0.068937 0.903356
0.059307 0.068922 0.903169
0.062036 0.068908 0.902976
0.064763 0.068892 0.902772
0.067488 0.068876 0.902560
0.070211 0.068859 0.902339
0.073061 0.068964 0.903713
0.075785 0.068946 0.903476
0.078512 0.068932 0.903290
0.081241 0.068920 0.903141
0.083959 0.068901 0.902885
0.086674 0.068880 0.902615
0.089387 0.068859 0.902337
0.092268 0.068964 0.903720
0.094991 0.068950 0.903525
0.097702 0.068926 0.903223
0.100409 0.068903 0.902912
0.103114 0.068878 0.902593
0.105817 0.068854 0.902273
0.108515 0.068828 0.901935
0.111314 0.068865 0.902423
0.114107 0.068898 0.902846
0.116813 0.068877 0.902577
0.119515 0.068855 0.902286
0.122205 0.068827 0.901918
0.124890 0.068798 0.901536
0.127572 0.068768 0.901146
0.130250 0.068738 0.900748
0.132926 0.068707 0.900352
0.135598 0.068676 0.899940
0.138536 0.068778 0.901278
0.141205 0.068745 0.900849
0.143871 0.068712 0.900418
0.146819 0.068813 0.901733
0.149481 0.068778 0.901281
0.152140 0.068743 0.900821
0.155091 0.068839 0.902080
0.157755 0.068807 0.901651
0.160712 0.068901 0.902887
0.163372 0.068867 0.902439
0.166247 0.068922 0.903168
0.168995 0.068925 0.903201
0.171639 0.068886 0.902687
0.174527 0.068944 0.903449
0.177263 0.068941 0.903416
0.180218 0.069022 0.904479
0.182887 0.068993 0.904100
0.185876 0.069084 0.905290
0.188514 0.069044 0.904758
0.191515 0.069135 0.905958
0.194448 0.069200 0.906811
0.197148 0.069182 0.906569
0.200166 0.069274 0.907772
0.202788 0.069228 0.907173
0.205805 0.069316 0.908331
0.208424 0.069270 0.907728
0.211434 0.069354 0.908822
0.214060 0.069310 0.908254
0.217085 0.069396 0.909378
0.219695 0.069348 0.908752
0.222696 0.069424 0.909740
0.225329 0.069384 0.909221
0.227948 0.069341 0.908656
0.230962 0.069418 0.909663
0.233560 0.069369 0.909023
0.236606 0.069453 0.910127
0.239182 0.069399 0.909412
0.241813 0.069362 0.908925
0.244804 0.069427 0.909785
0.247386 0.069377 0.909123
0.250423 0.069454 0.910131
0.252993 0.069400 0.909434
0.255628 0.069366 0.908989
0.258602 0.069424 0.909740
0.261155 0.069368 0.909013
0.263691 0.069310 0.908244
0.266235 0.069254 0.907517
0.268756 0.069194 0.906724
0.271287 0.069137 0.905985
0.273794 0.069076 0.905180
0.276314 0.069019 0.904431
0.278821 0.068960 0.903659
0.281314 0.068898 0.902854
0.283982 0.068881 0.902623
0.286848 0.068911 0.903016
0.289340 0.068851 0.902239
0.291805 0.068787 0.901392
0.294284 0.068727 0.900604
0.296961 0.068713 0.900430
0.299786 0.068734 0.900705
0.302473 0.068723 0.900562
0.305282 0.068740 0.900782
0.308020 0.068741 0.900794
0.310769 0.068744 0.900835
0.313486 0.068740 0.900783
0.316250 0.068747 0.900865
0.318978 0.068745 0.900846
0.321735 0.068750 0.900908
0.324181 0.068688 0.900103
0.327212 0.068751 0.900927
0.329939 0.068749 0.900902
0.332701 0.068755 0.900976
0.335708 0.068811 0.901705
0.338777 0.068878 0.902589
0.341572 0.068889 0.902734
0.344616 0.068950 0.903527
0.347284 0.068935 0.903333
0.350350 0.068998 0.904167
0.353431 0.069064 0.905028
0.356486 0.069124 0.905809
0.359574 0.069189 0.906661
0.363098 0.069336 0.908590
0.365774 0.069320 0.908386
0.368852 0.069381 0.909175
0.371944 0.069443 0.909987
0.375002 0.069497 0.910703
0.378077 0.069554 0.911451
0.381188 0.069617 0.912274
0.384268 0.069673 0.913012
0.387385 0.069736 0.913827
0.390610 0.069816 0.914880
0.393894 0.069906 0.916058
0.396722 0.069914 0.916166
0.399775 0.069962 0.916789
0.402912 0.070023 0.917594
0.405978 0.070072 0.918229
0.408817 0.070080 0.918343
0.411880 0.070127 0.918958
0.414972 0.070178 0.919627
0.417724 0.070172 0.919539
0.420823 0.070223 0.920210
0.424724 0.070406 0.922616
0.428339 0.070540 0.924371
0.432349 0.070737 0.926953
0.435510 0.070794 0.927690
0.438627 0.070842 0.928326
0.441765 0.070893 0.928999
0.444947 0.070951 0.929755
0.447695 0.070939 0.929599
-0.430566 0.070146 0.884319
-0.429250 0.070370 0.887150
-0.427157 0.070469 0.888397
-0.424116 0.070412 0.887679
-0.421932 0.070497 0.888755
-0.419560 0.070552 0.889445
-0.416699 0.070525 0.889103
-0.413654 0.070466 0.888361
-0.410661 0.070415 0.887722
-0.408232 0.070461 0.888301
-0.405276 0.070416 0.887733
-0.402377 0.070381 0.887284
-0.400022 0.070440 0.888035
-0.397679 0.070503 0.888826
-0.394854 0.070480 0.888540
-0.392743 0.070586 0.889869
-0.390861 0.070734 0.891740
-0.387980 0.070702 0.891339
-0.384761 0.070608 0.890153
-0.381151 0.070441 0.888039
-0.377954 0.070347 0.886864
-0.374191 0.070147 0.884335
-0.371184 0.070086 0.883567
-0.368156 0.070020 0.882740
-0.365193 0.069966 0.882055
-0.362366 0.069937 0.881692
-0.359429 0.069887 0.881055
-0.357074 0.069949 0.881846
-0.354075 0.069886 0.881044
-0.351146 0.069835 0.880407
-0.348764 0.069893 0.881141
-0.345558 0.069786 0.879791
-0.342783 0.069765 0.879524
-0.340200 0.069783 0.879749
-0.337474 0.069772 0.879606
-0.334537 0.069716 0.878906
-0.332155 0.069776 0.879666
-0.329814 0.069846 0.880544
-0.327467 0.069916 0.881424
-0.325100 0.069982 0.882261
-0.322751 0.070054 0.883163
-0.320370 0.070119 0.883991
-0.317995 0.070188 0.884851
-0.315612 0.070255 0.885702
-0.313224 0.070323 0.886554
-0.310826 0.070389 0.887394
-0.308795 0.070541 0.889302
-0.306611 0.070660 0.890803
-0.304179 0.070723 0.891600
-0.301762 0.070791 0.892457
-0.299316 0.070853 0.893244
-0.296877 0.070919 0.894067
-0.294477 0.070994 0.895021
-0.292380 0.071145 0.896926
-0.290075 0.071248 0.898221
-0.287592 0.071309 0.898983
-0.284980 0.071338 0.899353
-0.282150 0.071313 0.899036
-0.280139 0.071496 0.901347
-0.277636 0.071556 0.902104
-0.275135 0.071618 0.902886
-0.272618 0.071677 0.903630
-0.270091 0.071735 0.904355
-0.267576 0.071797 0.905133
-0.265036 0.071853 0.905846
-0.262147 0.071815 0.905365
-0.259461 0.071832 0.905584
-0.256910 0.071888 0.906286
-0.253989 0.071840 0.905678
-0.251804 0.072001 0.907715
-0.249664 0.072179 0.909958
-0.247572 0.072376 0.912433
-0.245048 0.072448 0.913350
-0.242451 0.072501 0.914011
-0.239920 0.072574 0.914941
-0.237256 0.072610 0.915383
-0.234651 0.072663 0.916061
-0.232031 0.072714 0.916700
-0.229412 0.072766 0.917355
-0.226405 0.072695 0.916456
-0.224157 0.072868 0.918647
-0.221528 0.072921 0.919311
-0.219302 0.073109 0.921685
-0.217074 0.073302 0.924112
-0.214434 0.073359 0.924826
-0.212157 0.073543 0.927148
-0.209479 0.073591 0.927753
-0.206796 0.073638 0.928351
-0.204101 0.073683 0.928916
-0.201020 0.073587 0.927711
-0.198272 0.073613 0.928034
-0.195242 0.073533 0.927022
-0.192486 0.073555 0.927304
-0.189469 0.073477 0.926319
-0.186766 0.073520 0.926863
-0.183990 0.073535 0.927055
-0.180993 0.073461 0.926118
-0.178206 0.073471 0.926248
-0.175220 0.073398 0.925327
-0.172423 0.073404 0.925397
-0.169370 0.073298 0.924065
-0.166397 0.073224 0.923135
-0.163371 0.073125 0.921878
-0.160341 0.073019 0.920550
-0.157532 0.073013 0.920468
-0.154604 0.072950 0.919670
-0.151587 0.072842 0.918310
-0.148771 0.072828 0.918137
-0.145864 0.072768 0.917385
-0.142864 0.072659 0.916010
-0.139873 0.072550 0.914635
-0.136889 0.072441 0.913255
-0.133913 0.072331 0.911868
-0.131094 0.072303 0.911516
-0.128125 0.072189 0.910085
-0.125273 0.072138 0.909439
-0.122339 0.072036 0.908158
-0.119611 0.072054 0.908374
-0.116670 0.071941 0.906950
-0.113958 0.071967 0.907285
-0.111026 0.071853 0.905840
-0.108315 0.071878 0.906161
-0.105585 0.071893 0.906347
-0.102681 0.071786 0.905006
-0.099966 0.071810 0.905299
-0.097059 0.071692 0.903821
-0.094344 0.071715 0.904100
-0.091521 0.071653 0.903326
-0.088733 0.071617 0.902865
-0.086016 0.071637 0.903120
-0.083297 0.071656 0.903366
-0.080575 0.071675 0.903602
-0.077852 0.071693 0.903830
-0.075126 0.071711 0.904053
-0.072398 0.071728 0.904267
-0.069669 0.071744 0.904469
-0.066937 0.071759 0.904666
-0.064127 0.071688 0.903763
-0.061349 0.071649 0.903270
-0.058618 0.071662 0.903441
-0.055885 0.071675 0.903604
-0.053140 0.071673 0.903576
-0.050317 0.071559 0.902142
-0.047585 0.071570 0.902280
-0.044852 0.071580 0.902410
-0.042036 0.071450 0.900771
-0.039306 0.071459 0.900883
-0.036576 0.071468 0.900988
-0.033844 0.071475 0.901085
-0.031111 0.071482 0.901173
-0.028322 0.071349 0.899495
-0.025593 0.071355 0.899566
-0.022864 0.071360 0.899629
-0.020134 0.071364 0.899684
-0.017403 0.071368 0.899730
-0.014672 0.071371 0.899768
-0.011941 0.071373 0.899798
-0.009192 0.071240 0.898116
-0.006465 0.071237 0.898077
-0.003738 0.071237 0.898082
-0.001012 0.071237 0.898078
0.001715 0.071236 0.898063
0.004440 0.071216 0.897809
0.007166 0.071213 0.897780
0.009891 0.071211 0.897756
0.012619 0.071226 0.897936
0.015344 0.071221 0.897882
0.018100 0.071337 0.899338
0.020834 0.071350 0.899506
0.023563 0.071344 0.899427
0.026297 0.071352 0.899536
0.029075 0.071469 0.901003
0.031807 0.071461 0.900900
0.034538 0.071452 0.900788
0.037330 0.071563 0.902191
0.040074 0.071572 0.902300
0.042807 0.071561 0.902164
0.045539 0.071549 0.902018
0.048351 0.071658 0.903390
0.051084 0.071645 0.903227
0.053827 0.071646 0.903236
0.056562 0.071637 0.903117
0.059292 0.071622 0.902929
0.062020 0.071606 0.902737
0.064746 0.071590 0.902533
0.067470 0.071573 0.902321
0.070192 0.071556 0.902100
0.072913 0.071538 0.901876
0.075631 0.071519 0.901639
0.078347 0.071500 0.901394
0.081113 0.071526 0.901717
0.083915 0.071580 0.902408
0.086652 0.071578 0.902377
0.089364 0.071556 0.902099
0.092073 0.071533 0.901813
0.094851 0.071564 0.902197
0.097676 0.071626 0.902985
0.100383 0.071601 0.902675
0.103087 0.071576 0.902356
0.105789 0.071551 0.902036
0.108487 0.071524 0.901699
0.111183 0.071497 0.901363
0.113876 0.071470 0.901014
0.116671 0.071507 0.901479
0.119452 0.071533 0.901812
0.122140 0.071504 0.901444
0.124857 0.071492 0.901301
0.127538 0.071462 0.900911
0.130216 0.071430 0.900513
0.132892 0.071399 0.900118
0.135562 0.071366 0.899706
0.138500 0.071472 0.901043
0.141168 0.071438 0.900615
0.143834 0.071404 0.900185
0.146662 0.071451 0.900772
0.149443 0.071472 0.901047
0.152101 0.071436 0.900588
0.154944 0.071486 0.901223
0.157703 0.071497 0.901354
0.160365 0.071464 0.900936
0.163219 0.071516 0.901592
0.165979 0.071525 0.901713
0.168622 0.071485 0.901207
0.171585 0.071580 0.902405
0.174234 0.071543 0.901934
0.177171 0.071623 0.902946
0.179853 0.071599 0.902649
0.182833 0.071693 0.903831
0.185471 0.071653 0.903318
0.188459 0.071746 0.904495
0.191376 0.071810 0.905302
0.194092 0.071798 0.905153
0.197014 0.071861 0.905951
0.199725 0.071847 0.905771
0.202733 0.071939 0.906927
0.205353 0.071892 0.906339
0.208371 0.071984 0.907499
0.210983 0.071935 0.906880
0.214006 0.072026 0.908026
0.217031 0.072115 0.909149
0.219640 0.072065 0.908523
0.222252 0.072018 0.907929
0.225273 0.072103 0.908993
0.227949 0.072076 0.908660
0.230905 0.072138 0.909436
0.233955 0.072227 0.910562
0.236548 0.072175 0.909900
0.239122 0.072118 0.909186
0.242177 0.072206 0.910293
0.244743 0.072148 0.909560
0.247802 0.072234 0.910654
0.250361 0.072175 0.909906
0.252930 0.072120 0.909210
0.255990 0.072204 0.910274
0.258538 0.072144 0.909516
0.261091 0.072087 0.908790
0.263627 0.072026 0.908021
0.266170 0.071968 0.907295
0.268690 0.071905 0.906502
0.271221 0.071847 0.905765
0.273728 0.071783 0.904960
0.276247 0.071723 0.904211
0.278754 0.071662 0.903440
0.281246 0.071598 0.902635
0.283746 0.071538 0.901871
0.286727 0.071598 0.902635
0.289270 0.071550 0.902022
0.291735 0.071483 0.901175
0.294214 0.071420 0.900388
0.296890 0.071406 0.900214
0.299715 0.071428 0.900490
0.302761 0.071502 0.901419
0.305209 0.071434 0.900568
0.308218 0.071498 0.901372
0.310696 0.071439 0.900622
0.313412 0.071435 0.900570
0.316175 0.071441 0.900652
0.318903 0.071440 0.900633
0.321660 0.071445 0.900696
0.324386 0.071443 0.900674
0.327136 0.071446 0.900715
0.330174 0.071512 0.901544
0.332934 0.071517 0.901608
0.335678 0.071518 0.901624
0.338699 0.071578 0.902379
0.341756 0.071645 0.903218
0.344574 0.071660 0.903418
0.347642 0.071728 0.904264
0.350682 0.071788 0.905024
0.353775 0.071858 0.905908
0.356842 0.071922 0.906712
0.359942 0.071991 0.907588
0.363015 0.072054 0.908383
0.366122 0.072123 0.909250
0.369211 0.072187 0.910060
0.372314 0.072253 0.910893
0.375432 0.072321 0.911748
0.378520 0.072382 0.912519
0.381644 0.072450 0.913366
0.384738 0.072510 0.914128
0.387298 0.072470 0.913621
0.390735 0.072593 0.915175
0.393931 0.072670 0.916146
0.396911 0.072706 0.916603
0.400039 0.072769 0.917396
0.403189 0.072835 0.918225
0.406001 0.072839 0.918280
0.409030 0.072882 0.918823
0.412138 0.072939 0.919533
0.414881 0.072930 0.919425
0.417630 0.072923 0.919332
0.420359 0.072912 0.919195
0.423791 0.073022 0.920589
0.427682 0.073210 0.922955
0.431692 0.073415 0.925543
0.434910 0.073484 0.926412
0.438084 0.073545 0.927178
0.440805 0.073529 0.926980
0.443965 0.073587 0.927703
0.447161 0.073649 0.928491
-0.431307 0.072933 0.885843
-0.429313 0.073051 0.887279
-0.427929 0.073275 0.890004
-0.425708 0.073358 0.891010
-0.422693 0.073304 0.890358
-0.420286 0.073356 0.890984
-0.417316 0.073309 0.890419
-0.414267 0.073248 0.889678
-0.411388 0.073217 0.889292
-0.408359 0.073158 0.888576
-0.405891 0.073199 0.889079
-0.402963 0.073158 0.888576
-0.400612 0.073221 0.889345
-0.397812 0.073203 0.889123
-0.395429 0.073261 0.889833
-0.393187 0.073347 0.890876
-0.390903 0.073426 0.891836
-0.387993 0.073388 0.891371
-0.384700 0.073276 0.890013
-0.381626 0.073205 0.889147
-0.377864 0.072999 0.886653
-0.374232 0.072816 0.884430
-0.371297 0.072767 0.883837
-0.368277 0.072701 0.883030
-0.365380 0.072658 0.882508
-0.362803 0.072678 0.882756
-0.359981 0.072650 0.882408
-0.357112 0.072611 0.881939
-0.354480 0.072621 0.882052
-0.351688 0.072597 0.881766
-0.348754 0.072544 0.881117
-0.345822 0.072490 0.880462
-0.343147 0.072489 0.880459
-0.340393 0.072472 0.880248
-0.337458 0.072416 0.879565
-0.335059 0.072474 0.880278
-0.332189 0.072431 0.879754
-0.329733 0.072479 0.880328
-0.327386 0.072551 0.881206
-0.325019 0.072620 0.882043
-0.322671 0.072694 0.882944
-0.320290 0.072762 0.883772
-0.317916 0.072833 0.884631
-0.315533 0.072903 0.885482
-0.313145 0.072973 0.886333
-0.311139 0.073134 0.888286
-0.308937 0.073251 0.889712
-0.306534 0.073323 0.890580
-0.304102 0.073388 0.891376
-0.301686 0.073459 0.892232
-0.299240 0.073523 0.893018
-0.296868 0.073607 0.894039
-0.294927 0.073801 0.896389
-0.292471 0.073868 0.897204
-0.290002 0.073933 0.897993
-0.287519 0.073996 0.898754
-0.285050 0.074063 0.899574
-0.282555 0.074125 0.900325
-0.280067 0.074190 0.901116
-0.277564 0.074252 0.901873
-0.275136 0.074336 0.902889
-0.272643 0.074404 0.903711
-0.270115 0.074463 0.904435
-0.267599 0.074527 0.905213
-0.265060 0.074586 0.905926
-0.262440 0.074623 0.906378
-0.259889 0.074681 0.907079
-0.257346 0.074742 0.907822
-0.254377 0.074680 0.907062
-0.251825 0.074740 0.907792
-0.249658 0.074916 0.909937
-0.247508 0.075102 0.912194
-0.244984 0.075178 0.913111
-0.242387 0.075232 0.913771
-0.240233 0.075427 0.916135
-0.237295 0.075377 0.915532
-0.234589 0.075401 0.915820
-0.231970 0.075453 0.916458
-0.229352 0.075507 0.917113
-0.226728 0.075561 0.917762
-0.224098 0.075613 0.918404
-0.221469 0.075668 0.919067
-0.219244 0.075863 0.921441
-0.217016 0.076063 0.923867
-0.214354 0.076114 0.924484
-0.212028 0.076287 0.926581
-0.209357 0.076338 0.927210
-0.206639 0.076374 0.927647
-0.203654 0.076311 0.926881
-0.200966 0.076359 0.927462
-0.198219 0.076386 0.927785
-0.195189 0.076302 0.926773
-0.192434 0.076326 0.927055
-0.189418 0.076245 0.926070
-0.186716 0.076289 0.926613
-0.183650 0.076184 0.925340
-0.180944 0.076228 0.925868
-0.178158 0.076239 0.925998
-0.175172 0.076163 0.925076
-0.172377 0.076168 0.925146
-0.169324 0.076059 0.923814
-0.166277 0.075948 0.922471
-0.163327 0.075879 0.921628
-0.160297 0.075769 0.920299
-0.157489 0.075763 0.920217
-0.154561 0.075697 0.919419
-0.151545 0.075585 0.918059
-0.148730 0.075571 0.917886
-0.145824 0.075509 0.917134
-0.142825 0.075396 0.915760
-0.140005 0.075374 0.915497
-0.136880 0.075185 0.913197
-0.133876 0.075055 0.911618
-0.131058 0.075026 0.911265
-0.128197 0.074971 0.910596
-0.125238 0.074855 0.909189
-0.122419 0.074818 0.908747
-0.119578 0.074767 0.908124
-0.116756 0.074726 0.907625
-0.113927 0.074677 0.907034
-0.110996 0.074558 0.905590
-0.108285 0.074585 0.905910
-0.105462 0.074534 0.905289
-0.102653 0.074490 0.904756
-0.099938 0.074514 0.905049
-0.097032 0.074392 0.903570
-0.094318 0.074415 0.903850
-0.091495 0.074351 0.903076
-0.088708 0.074313 0.902614
-0.085992 0.074334 0.902869
-0.083274 0.074355 0.903115
-0.080553 0.074374 0.903351
-0.077830 0.074393 0.903579
-0.075105 0.074411 0.903801
-0.072378 0.074429 0.904015
-0.069649 0.074445 0.904218
-0.066919 0.074462 0.904414
-0.064186 0.074477 0.904603
-0.061365 0.074386 0.903498
-0.058602 0.074361 0.903189
-0.055870 0.074374 0.903351
-0.053037 0.074248 0.901817
-0.050303 0.074254 0.901890
-0.047572 0.074265 0.902028
-0.044840 0.074276 0.902157
-0.042027 0.074146 0.900576
-0.039295 0.074150 0.900632
-0.036565 0.074159 0.900737
-0.033834 0.074167 0.900833
-0.031102 0.074174 0.900921
-0.028315 0.074039 0.899281
-0.025586 0.074042 0.899314
-0.022857 0.074047 0.899377
-0.020128 0.074051 0.899432
-0.017398 0.074055 0.899478
-0.014668 0.074058 0.899516
-0.011938 0.074061 0.899546
-0.009189 0.073918 0.897813
-0.006463 0.073919 0.897826
-0.003737 0.073920 0.897830
-0.001011 0.073893 0.897512
0.001711 0.073774 0.896063
0.004431 0.073773 0.896052
0.007151 0.073770 0.896015
0.009887 0.073886 0.897419
0.012616 0.073908 0.897684
0.015340 0.073903 0.897631
0.018064 0.073898 0.897569
0.020792 0.073907 0.897680
0.023556 0.074030 0.899176
0.026284 0.074023 0.899089
0.029018 0.074036 0.899241
0.031798 0.074152 0.900648
0.034528 0.074142 0.900536
0.037257 0.074132 0.900417
0.040063 0.074267 0.902048
0.042795 0.074256 0.901912
0.045526 0.074244 0.901766
0.048256 0.074231 0.901614
0.050984 0.074218 0.901451
0.053711 0.074204 0.901282
0.056479 0.074246 0.901800
0.059275 0.074319 0.902678
0.062002 0.074303 0.902486
0.064728 0.074286 0.902282
0.067451 0.074269 0.902070
0.070173 0.074250 0.901849
0.072893 0.074232 0.901626
0.075610 0.074213 0.901389
0.078326 0.074192 0.901144
0.081039 0.074172 0.900891
0.083750 0.074151 0.900636
0.086515 0.074176 0.900950
0.089339 0.074250 0.901849
0.092048 0.074227 0.901564
0.094755 0.074203 0.901276
0.097545 0.074244 0.901772
0.100355 0.074298 0.902425
0.103059 0.074272 0.902107
0.105760 0.074245 0.901788
0.108457 0.074218 0.901450
0.111153 0.074190 0.901115
0.113844 0.074161 0.900766
0.116634 0.074196 0.901191
0.119451 0.074247 0.901802
0.121925 0.074086 0.899852
0.124823 0.074185 0.901053
0.127503 0.074153 0.900664
0.130180 0.074120 0.900267
0.132855 0.074088 0.899872
0.135525 0.074054 0.899459
0.138365 0.074112 0.900166
0.141129 0.074129 0.900369
0.143794 0.074093 0.899939
0.146454 0.074057 0.899496
0.149276 0.074102 0.900043
0.152044 0.074119 0.900251
0.154715 0.074089 0.899889
0.157364 0.074050 0.899416
0.160266 0.074130 0.900381
0.162968 0.074115 0.900202
0.165814 0.074166 0.900818
0.168576 0.074178 0.900964
0.171214 0.074135 0.900451
0.174175 0.074232 0.901630
0.176825 0.074195 0.901180
0.179693 0.074250 0.901845
0.182435 0.074252 0.901864
0.185412 0.074348 0.903030
0.188048 0.074306 0.902521
0.191033 0.074401 0.903680
0.193939 0.074464 0.904439
0.196661 0.074455 0.904329
0.199666 0.074551 0.905503
0.202590 0.074616 0.906285
0.205299 0.074600 0.906098
0.208297 0.074689 0.907175
0.210927 0.074645 0.906640
0.213948 0.074739 0.907779
0.216554 0.074687 0.907152
0.219582 0.074780 0.908284
0.222270 0.074757 0.907999
0.225214 0.074819 0.908754
0.228183 0.074888 0.909592
0.230844 0.074855 0.909197
0.233894 0.074948 0.910324
0.236486 0.074894 0.909662
0.239102 0.074848 0.909110
0.242114 0.074926 0.910055
0.244680 0.074866 0.909323
0.247738 0.074956 0.910417
0.250296 0.074894 0.909670
0.252865 0.074837 0.908974
0.255581 0.074824 0.908820
0.258471 0.074862 0.909281
0.261023 0.074803 0.908556
0.263559 0.074739 0.907787
0.266102 0.074680 0.907062
0.268621 0.074614 0.906270
0.271152 0.074554 0.905533
0.273658 0.074487 0.904728
0.276176 0.074426 0.903980
0.278683 0.074362 0.903210
0.281174 0.074296 0.902406
0.283674 0.074233 0.901641
0.286146 0.074165 0.900808
0.288633 0.074101 0.900034
0.291661 0.074176 0.900947
0.294139 0.074111 0.900161
0.296815 0.074097 0.899988
0.299639 0.074120 0.900263
0.302621 0.074181 0.901003
0.305132 0.074126 0.900342
0.307837 0.074119 0.900258
0.310618 0.074131 0.900397
0.313334 0.074127 0.900346
0.316097 0.074133 0.900428
0.318824 0.074132 0.900410
0.321580 0.074137 0.900473
0.324363 0.074148 0.900610
0.327055 0.074139 0.900493
0.330092 0.074207 0.901322
0.332853 0.074212 0.901386
0.335902 0.074281 0.902226
0.338616 0.074276 0.902159
0.341672 0.074345 0.902998
0.344805 0.074429 0.904023
0.347798 0.074483 0.904669
0.350869 0.074551 0.905506
0.353736 0.074576 0.905809
0.356801 0.074642 0.906610
0.360107 0.074757 0.908006
0.363173 0.074821 0.908779
0.366273 0.074891 0.909625
0.369164 0.074917 0.909943
0.372265 0.074985 0.910773
0.375381 0.075055 0.911624
0.378640 0.075153 0.912809
0.381756 0.075221 0.913634
0.384681 0.075250 0.913993
0.387860 0.075329 0.914947
0.391041 0.075406 0.915890
0.394098 0.075459 0.916532
0.397205 0.075521 0.917283
0.400336 0.075586 0.918077
0.403214 0.075603 0.918283
0.406190 0.075638 0.918708
0.409058 0.075653 0.918885
0.412042 0.075689 0.919319
0.414830 0.075688 0.919311
0.417428 0.075653 0.918886
0.419858 0.075588 0.918099
0.422891 0.075632 0.918634
0.425991 0.075688 0.919305
0.429875 0.075881 0.921649
0.433844 0.076086 0.924142
0.437036 0.076153 0.924960
0.439812 0.076148 0.924892
0.442979 0.076209 0.925642
0.446546 0.076339 0.927213
-0.432051 0.075729 0.887369
-0.430088 0.075858 0.888880
-0.428701 0.076091 0.891610
-0.426299 0.076145 0.892248
-0.423282 0.076090 0.891599
-0.420232 0.076028 0.890871
-0.417970 0.076109 0.891815
-0.414923 0.076046 0.891086
-0.411967 0.076000 0.890545
-0.409074 0.075965 0.890132
-0.406593 0.076006 0.890617
-0.403569 0.075946 0.889912
-0.400761 0.075926 0.889675
-0.398380 0.075987 0.890393
-0.396107 0.076070 0.891361
-0.393862 0.076159 0.892405
-0.391453 0.076217 0.893089
-0.388426 0.076155 0.892364
-0.385329 0.076079 0.891469
-0.381574 0.075870 0.889024
-0.378081 0.075711 0.887161
-0.375055 0.075644 0.886376
-0.371890 0.075548 0.885248
-0.368744 0.075454 0.884150
-0.366026 0.075447 0.884068
-0.363433 0.075466 0.884289
-0.360700 0.075456 0.884171
-0.357752 0.075400 0.883519
-0.355096 0.075406 0.883585
-0.352384 0.075400 0.883512
-0.349756 0.075411 0.883648
-0.346440 0.075274 0.882037
-0.343744 0.075270 0.881991
-0.341059 0.075268 0.881971
-0.338111 0.075208 0.881268
-0.335631 0.075252 0.881779
-0.332782 0.075213 0.881326
-0.330370 0.075273 0.882030
-0.327944 0.075331 0.882708
-0.325573 0.075403 0.883546
-0.322728 0.075365 0.883100
-0.320346 0.075435 0.883927
-0.317971 0.075509 0.884786
-0.315588 0.075581 0.885636
-0.313678 0.075769 0.887841
-0.311352 0.075859 0.888896
-0.308991 0.075942 0.889866
-0.306587 0.076016 0.890733
-0.304155 0.076084 0.891529
-0.301738 0.076157 0.892386
-0.299292 0.076224 0.893172
-0.297306 0.076411 0.895359
-0.294977 0.076512 0.896542
-0.292967 0.076698 0.898727
-0.290494 0.076766 0.899516
-0.288007 0.076831 0.900279
-0.285533 0.076901 0.901099
-0.283034 0.076965 0.901851
-0.280542 0.077033 0.902643
-0.278035 0.077097 0.903401
-0.275530 0.077164 0.904183
-0.273010 0.077228 0.904928
-0.270479 0.077289 0.905653
-0.267959 0.077356 0.906431
-0.265416 0.077417 0.907145
-0.262884 0.077482 0.907911
-0.260329 0.077542 0.908613
-0.257296 0.077459 0.907645
-0.254718 0.077514 0.908280
-0.252164 0.077576 0.909012
-0.249685 0.077664 0.910038
-0.247495 0.077844 0.912147
-0.244919 0.077905 0.912868
-0.242670 0.078073 0.914839
-0.240202 0.078174 0.916020
-0.237591 0.078230 0.916672
-0.234548 0.078143 0.915659
-0.231908 0.078191 0.916213
-0.229290 0.078246 0.916867
-0.226667 0.078302 0.917516
-0.224038 0.078357 0.918157
-0.221503 0.078446 0.919206
-0.219185 0.078616 0.921192
-0.216958 0.078823 0.923617
-0.214297 0.078875 0.924234
-0.211651 0.078935 0.924935
-0.209252 0.079090 0.926748
-0.206281 0.079029 0.926040
-0.203599 0.079080 0.926629
-0.200911 0.079129 0.927210
-0.197828 0.079022 0.925954
-0.195136 0.079070 0.926520
-0.192382 0.079094 0.926802
-0.189366 0.079010 0.925817
-0.186651 0.079051 0.926289
-0.183600 0.078948 0.925087
-0.180894 0.078993 0.925614
-0.178109 0.079004 0.925744
-0.175124 0.078925 0.924822
-0.172273 0.078906 0.924592
-0.169277 0.078818 0.923560
-0.166231 0.078703 0.922217
-0.163262 0.078622 0.921264
-0.160253 0.078518 0.920045
-0.157446 0.078511 0.919963
-0.154519 0.078443 0.919165
-0.151503 0.078326 0.917805
-0.148766 0.078352 0.918109
-0.145783 0.078248 0.916880
-0.142785 0.078130 0.915505
-0.139928 0.078087 0.914999
-0.136976 0.077988 0.913837
-0.133995 0.077868 0.912427
-0.131021 0.077747 0.911011
-0.128161 0.077690 0.910341
-0.125203 0.077570 0.908935
-0.122384 0.077532 0.908493
-0.119544 0.077479 0.907870
-0.116724 0.077436 0.907371
-0.113895 0.077386 0.906780
-0.111072 0.077337 0.906215
-0.108254 0.077290 0.905656
-0.105432 0.077237 0.905035
-0.102624 0.077191 0.904501
-0.099910 0.077216 0.904794
-0.097023 0.077104 0.903484
-0.094291 0.077114 0.903595
-0.091470 0.077048 0.902822
-0.088683 0.077008 0.902360
-0.085968 0.077030 0.902614
-0.083250 0.077051 0.902861
-0.080530 0.077071 0.903096
-0.077808 0.077091 0.903324
-0.075084 0.077110 0.903546
-0.072358 0.077128 0.903759
-0.069630 0.077145 0.903962
-0.066900 0.077162 0.904158
-0.064168 0.077178 0.904347
-0.061435 0.077193 0.904527
-0.058585 0.077057 0.902933
-0.055854 0.077071 0.903095
-0.053121 0.077084 0.903251
-0.050289 0.076946 0.901634
-0.047559 0.076958 0.901772
-0.044827 0.076969 0.901902
-0.042080 0.076953 0.901709
-0.039284 0.076839 0.900376
-0.036555 0.076848 0.900481
-0.033825 0.076856 0.900577
-0.031094 0.076864 0.900665
-0.028312 0.076735 0.899155
-0.025579 0.076727 0.899059
-0.022851 0.076732 0.899122
-0.020122 0.076737 0.899176
-0.017393 0.076741 0.899223
-0.014664 0.076744 0.899261
-0.011929 0.076715 0.898925
-0.009186 0.076599 0.897557
-0.006461 0.076600 0.897570
-0.003736 0.076600 0.897575
-0.001011 0.076599 0.897567
0.001710 0.076449 0.895808
0.004430 0.076448 0.895788
0.007149 0.076445 0.895760
0.009869 0.076442 0.895723
0.012612 0.076588 0.897429
0.015336 0.076583 0.897376
0.018059 0.076578 0.897314
0.020782 0.076572 0.897244
0.023549 0.076715 0.898920
0.026276 0.076707 0.898834
0.029010 0.076720 0.898986
0.031789 0.076841 0.900393
0.034518 0.076831 0.900281
0.037247 0.076821 0.900161
0.039989 0.076838 0.900368
0.042783 0.076948 0.901656
0.045513 0.076936 0.901510
0.048242 0.076923 0.901358
0.050970 0.076909 0.901196
0.053696 0.076895 0.901027
0.056530 0.077030 0.902610
0.059258 0.077014 0.902422
0.061985 0.076997 0.902231
0.064709 0.076980 0.902027
0.067432 0.076962 0.901815
0.070153 0.076943 0.901595
0.072872 0.076924 0.901371
0.075589 0.076904 0.901135
0.078303 0.076883 0.900890
0.081016 0.076861 0.900637
0.083726 0.076840 0.900382
0.086434 0.076817 0.900113
0.089291 0.076924 0.901371
0.092022 0.076919 0.901310
0.094728 0.076894 0.901022
0.097517 0.076937 0.901519
0.100327 0.076992 0.902172
0.103030 0.076965 0.901854
0.105730 0.076938 0.901535
0.108427 0.076909 0.901198
0.111146 0.076898 0.901062
0.113835 0.076866 0.900695
0.116500 0.076820 0.900156
0.119236 0.076822 0.900176
0.122105 0.076908 0.901183
0.124788 0.076875 0.900802
0.127468 0.076842 0.900413
0.130144 0.076808 0.900016
0.132819 0.076775 0.899622
0.135654 0.076834 0.900314
0.138423 0.076854 0.900548
0.141090 0.076817 0.900120
0.143754 0.076781 0.899690
0.146414 0.076743 0.899247
0.149290 0.076818 0.900129
0.152017 0.076815 0.900094
0.154672 0.076776 0.899641
0.157321 0.076736 0.899168
0.159965 0.076695 0.898687
0.162605 0.076653 0.898199
0.165548 0.076754 0.899373
0.168401 0.076809 0.900028
0.171152 0.076818 0.900124
0.173800 0.076780 0.899685
0.176651 0.076832 0.900296
0.179405 0.076841 0.900400
0.182263 0.076894 0.901014
0.184998 0.076893 0.901012
0.187986 0.076997 0.902223
0.190617 0.076953 0.901710
0.193600 0.077051 0.902858
0.196600 0.077152 0.904047
0.199507 0.077215 0.904781
0.202227 0.077205 0.904661
0.205137 0.077267 0.905385
0.207854 0.077255 0.905244
0.210867 0.077352 0.906383
0.213793 0.077415 0.907124
0.216496 0.077397 0.906908
0.219523 0.077493 0.908040
0.222468 0.077559 0.908811
0.225153 0.077533 0.908511
0.228197 0.077631 0.909651
0.230788 0.077573 0.908975
0.233832 0.077667 0.910081
0.236524 0.077644 0.909809
0.239463 0.077702 0.910484
0.242050 0.077645 0.909814
0.244763 0.077629 0.909631
0.247672 0.077675 0.910176
0.250230 0.077612 0.909430
0.252815 0.077558 0.908794
0.255856 0.077643 0.909800
0.258404 0.077579 0.909043
0.260955 0.077517 0.908318
0.263490 0.077451 0.907550
0.266032 0.077389 0.906825
0.268551 0.077322 0.906033
0.271081 0.077259 0.905297
0.273470 0.077158 0.904107
0.275875 0.077063 0.902994
0.278525 0.077037 0.902697
0.281102 0.076992 0.902172
0.283600 0.076927 0.901409
0.286073 0.076856 0.900576
0.288559 0.076790 0.899802
0.291504 0.076846 0.900462
0.294064 0.076801 0.899930
0.296527 0.076731 0.899115
0.299563 0.076810 0.900034
0.302197 0.076785 0.899741
0.305055 0.076817 0.900113
0.307509 0.076747 0.899299
0.310540 0.076821 0.900169
0.312985 0.076751 0.899343
0.316017 0.076824 0.900201
0.318743 0.076823 0.900183
0.321499 0.076828 0.900247
0.324547 0.076903 0.901121
0.327043 0.076846 0.900461
0.330010 0.076901 0.901097
0.332770 0.076906 0.901162
0.335818 0.076978 0.902002
0.338898 0.077055 0.902910
0.341965 0.077129 0.903772
0.345040 0.077203 0.904639
0.348113 0.077276 0.905490
0.350873 0.077278 0.905516
0.353961 0.077352 0.906384
0.357365 0.077493 0.908043
0.360470 0.077568 0.908920
0.363548 0.077636 0.909717
0.366288 0.077632 0.909662
0.369754 0.077780 0.911399
0.372863 0.077851 0.912234
0.375985 0.077924 0.913091
0.379078 0.077990 0.913865
0.382207 0.078063 0.914713
0.384871 0.078040 0.914444
0.388312 0.078174 0.916012
0.391345 0.078224 0.916603
0.394473 0.078292 0.917404
0.397498 0.078340 0.917960
0.400387 0.078360 0.918193
0.403525 0.078428 0.918992
0.406490 0.078462 0.919387
0.409252 0.078456 0.919320
0.411945 0.078437 0.919102
0.414742 0.078438 0.919116
0.417035 0.078345 0.918022
0.419715 0.078325 0.917786
0.422477 0.078320 0.917734
0.425051 0.078281 0.917277
0.428186 0.078345 0.918027
0.432017 0.078535 0.920251
0.435196 0.078605 0.921066
0.438313 0.078662 0.921739
0.441563 0.078743 0.922683
0.445456 0.078936 0.924950
-0.432569 0.078494 0.888434
-0.430426 0.078595 0.889579
-0.429448 0.078912 0.893162
-0.426163 0.078806 0.891963
-0.422933 0.078709 0.890862
-0.419877 0.078643 0.890118
-0.417117 0.078632 0.889995
-0.414614 0.078670 0.890423
-0.411658 0.078621 0.889876
-0.409318 0.078691 0.890663
-0.406291 0.078628 0.889956
-0.403528 0.078617 0.889821
-0.401007 0.078652 0.890223
-0.398282 0.078648 0.890173
-0.396010 0.078733 0.891140
-0.393564 0.078785 0.891731
-0.391278 0.078870 0.892690
-0.388414 0.078839 0.892338
-0.385233 0.078742 0.891247
-0.381991 0.078632 0.889996
-0.378417 0.078451 0.887950
-0.375381 0.078380 0.887147
-0.372364 0.078312 0.886376
-0.369326 0.078239 0.885545
-0.366540 0.078218 0.885309
-0.363876 0.078223 0.885366
-0.361210 0.078228 0.885421
-0.358207 0.078159 0.884643
-0.355891 0.078240 0.885564
-0.352888 0.078171 0.884774
-0.350293 0.078191 0.885006
-0.347294 0.078121 0.884210
-0.344339 0.078060 0.883517
-0.341552 0.078036 0.883247
-0.338919 0.078047 0.883372
-0.336200 0.078038 0.883275
-0.333637 0.078066 0.883590
-0.330855 0.078042 0.883323
-0.328500 0.078120 0.884204
-0.325894 0.078139 0.884416
-0.323301 0.078161 0.884668
-0.320915 0.078234 0.885496
-0.318459 0.078292 0.886143
-0.316148 0.078386 0.887207
-0.313755 0.078461 0.888059
-0.311803 0.078649 0.890184
-0.309472 0.078743 0.891252
-0.307131 0.078837 0.892312
-0.304693 0.078907 0.893109
-0.302272 0.078983 0.893966
-0.299821 0.079052 0.894753
-0.297654 0.079198 0.896405
-0.295349 0.079310 0.897671
-0.293038 0.079423 0.898944
-0.290564 0.079492 0.899733
-0.288076 0.079560 0.900496
-0.285457 0.079592 0.900857
-0.282958 0.079658 0.901609
-0.280466 0.079728 0.902400
-0.277960 0.079795 0.903157
-0.275561 0.079894 0.904285
-0.273075 0.079970 0.905143
-0.270543 0.080034 0.905868
-0.268023 0.080103 0.906646
-0.265479 0.080166 0.907359
-0.262837 0.080200 0.907749
-0.260258 0.080255 0.908365
-0.257711 0.080321 0.909108
-0.255146 0.080382 0.909807
-0.252587 0.080447 0.910539
-0.250011 0.080508 0.911224
-0.247539 0.080603 0.912309
-0.244976 0.080672 0.913081
-0.242729 0.080847 0.915062
-0.240136 0.080909 0.915766
-0.237525 0.080966 0.916419
-0.234920 0.081028 0.917111
-0.231973 0.080971 0.916470
-0.229343 0.081025 0.917079
-0.227047 0.081199 0.919053
-0.224413 0.081256 0.919695
-0.221774 0.081312 0.920331
-0.219127 0.081367 0.920948
-0.216897 0.081580 0.923359
-0.214236 0.081634 0.923975
-0.211883 0.081809 0.925951
-0.209006 0.081783 0.925656
-0.206318 0.081831 0.926208
-0.203541 0.081845 0.926368
-0.200855 0.081897 0.926948
-0.197772 0.081786 0.925692
-0.195081 0.081836 0.926258
-0.192107 0.081767 0.925479
-0.189313 0.081774 0.925554
-0.186612 0.081822 0.926097
-0.183641 0.081751 0.925295
-0.180843 0.081756 0.925351
-0.178078 0.081776 0.925582
-0.175074 0.081686 0.924558
-0.172280 0.081692 0.924627
-0.169229 0.081574 0.923296
-0.166184 0.081455 0.921953
-0.163235 0.081381 0.921109
-0.160207 0.081264 0.919781
-0.157401 0.081256 0.919699
-0.154449 0.081173 0.918753
-0.151460 0.081066 0.917541
-0.148646 0.081050 0.917368
-0.145741 0.080984 0.916616
-0.142744 0.080862 0.915241
-0.139925 0.080839 0.914978
-0.136964 0.080731 0.913755
-0.133984 0.080607 0.912351
-0.131090 0.080531 0.911487
-0.128124 0.080406 0.910078
-0.125203 0.080305 0.908930
-0.122457 0.080314 0.909033
-0.119542 0.080210 0.907853
-0.116799 0.080219 0.907955
-0.113861 0.080092 0.906516
-0.111149 0.080120 0.906842
-0.108249 0.080012 0.905616
-0.105430 0.079959 0.905014
-0.102618 0.079909 0.904449
-0.099881 0.079916 0.904530
-0.097166 0.079942 0.904818
-0.094284 0.079827 0.903525
-0.091470 0.079766 0.902829
-0.088702 0.079742 0.902555
-0.085986 0.079764 0.902810
-0.083268 0.079786 0.903056
-0.080521 0.079781 0.902996
-0.077785 0.079786 0.903059
-0.075062 0.079806 0.903281
-0.072337 0.079825 0.903494
-0.069609 0.079842 0.903697
-0.066880 0.079860 0.903892
-0.064149 0.079876 0.904081
-0.061417 0.079892 0.904262
-0.058598 0.079792 0.903127
-0.055837 0.079766 0.902830
-0.053105 0.079780 0.902985
-0.050316 0.079703 0.902117
-0.047569 0.079690 0.901966
-0.044814 0.079660 0.901636
-0.042082 0.079671 0.901758
-0.039276 0.079533 0.900189
-0.036544 0.079535 0.900215
-0.033815 0.079543 0.900311
-0.031084 0.079551 0.900400
-0.028353 0.079558 0.900479
-0.025621 0.079564 0.900551
-0.022889 0.079570 0.900614
-0.020117 0.079423 0.898950
-0.017388 0.079424 0.898957
-0.014660 0.079427 0.898995
-0.011914 0.079320 0.897789
-0.009184 0.079277 0.897292
-0.006459 0.079278 0.897305
-0.003735 0.079278 0.897310
-0.001009 0.079163 0.896012
0.001711 0.079162 0.896000
0.004431 0.079160 0.895967
0.007147 0.079118 0.895496
0.009867 0.079123 0.895552
0.012608 0.079265 0.897165
0.015331 0.079261 0.897111
0.018054 0.079255 0.897050
0.020776 0.079253 0.897027
0.023543 0.079397 0.898655
0.026268 0.079389 0.898569
0.029014 0.079438 0.899114
0.031780 0.079527 0.900128
0.034511 0.079524 0.900091
0.037236 0.079507 0.899896
0.039977 0.079525 0.900103
0.042771 0.079639 0.901391
0.045500 0.079626 0.901245
0.048228 0.079612 0.901093
0.050955 0.079598 0.900931
0.053680 0.079583 0.900762
0.056463 0.079652 0.901540
0.059241 0.079706 0.902157
0.061967 0.079690 0.901966
0.064690 0.079672 0.901762
0.067412 0.079653 0.901551
0.070132 0.079633 0.901331
0.072851 0.079614 0.901107
0.075567 0.079593 0.900871
0.078241 0.079531 0.900169
0.080967 0.079524 0.900090
0.083628 0.079456 0.899327
0.086409 0.079503 0.899850
0.089113 0.079478 0.899574
0.091995 0.079608 0.901047
0.094700 0.079583 0.900760
0.097425 0.079575 0.900666
0.100298 0.079685 0.901909
0.103000 0.079656 0.901592
0.105699 0.079628 0.901273
0.108423 0.079619 0.901167
0.111306 0.079725 0.902362
0.114002 0.079694 0.902013
0.116694 0.079662 0.901655
0.119383 0.079630 0.901289
0.122070 0.079597 0.900923
0.124752 0.079564 0.900542
0.127431 0.079529 0.900153
0.130107 0.079494 0.899756
0.132806 0.079475 0.899538
0.135615 0.079521 0.900055
0.138383 0.079541 0.900288
0.141050 0.079504 0.899861
0.143713 0.079466 0.899431
0.146372 0.079427 0.898989
0.149242 0.079502 0.899838
0.151896 0.079461 0.899379
0.154326 0.079306 0.897629
0.157196 0.079379 0.898454
0.159898 0.079367 0.898312
0.162558 0.079334 0.897943
0.165194 0.079291 0.897452
0.168134 0.079392 0.898602
0.170785 0.079356 0.898193
0.173613 0.079403 0.898717
0.176365 0.079413 0.898837
0.179004 0.079373 0.898388
0.181963 0.079474 0.899531
0.184824 0.079530 0.900165
0.187577 0.079539 0.900260
0.190433 0.079590 0.900839
0.193177 0.079594 0.900885
0.196160 0.079694 0.902022
0.199047 0.079754 0.902695
0.201782 0.079752 0.902670
0.204779 0.079852 0.903806
0.207776 0.079949 0.904908
0.210400 0.079902 0.904375
0.213415 0.080003 0.905518
0.216435 0.080103 0.906651
0.219462 0.080204 0.907788
0.222184 0.080192 0.907649
0.225091 0.080246 0.908259
0.228134 0.080346 0.909399
0.230743 0.080293 0.908798
0.233767 0.080384 0.909830
0.236394 0.080338 0.909309
0.239398 0.080420 0.910233
0.241996 0.080365 0.909612
0.245026 0.080453 0.910610
0.247605 0.080393 0.909927
0.250162 0.080327 0.909181
0.253223 0.080423 0.910263
0.255787 0.080360 0.909551
0.258333 0.080293 0.908795
0.260884 0.080229 0.908071
0.263418 0.080161 0.907304
0.265960 0.080097 0.906579
0.268390 0.080001 0.905490
0.271008 0.079962 0.905052
0.273274 0.079822 0.903460
0.275491 0.079670 0.901740
0.277992 0.079602 0.900972
0.281026 0.079686 0.901930
0.283524 0.079619 0.901167
0.285996 0.079545 0.900336
0.288482 0.079477 0.899562
0.290940 0.079403 0.898719
0.293836 0.079448 0.899234
0.296449 0.079417 0.898877
0.299120 0.079401 0.898703
0.301937 0.079425 0.898967
0.304557 0.079396 0.898643
0.307428 0.079433 0.899062
0.310044 0.079404 0.898732
0.312903 0.079437 0.899108
0.315934 0.079513 0.899965
0.318660 0.079511 0.899948
0.321415 0.079517 0.900012
0.324224 0.079536 0.900224
0.327292 0.079617 0.901146
0.329924 0.079592 0.900863
0.332990 0.079671 0.901759
0.336125 0.079766 0.902826
0.339201 0.079844 0.903719
0.342167 0.079896 0.904306
0.345235 0.079971 0.905152
0.348303 0.080044 0.905982
0.351378 0.080118 0.906821
0.354469 0.080195 0.907686
0.357648 0.080290 0.908761
0.360749 0.080366 0.909624
0.363702 0.080408 0.910103
0.366931 0.080511 0.911259
0.370021 0.080581 0.912056
0.373125 0.080653 0.912876
0.376243 0.080728 0.913718
0.379332 0.080795 0.914476
0.382456 0.080868 0.915309
0.385782 0.080983 0.916608
0.388917 0.081057 0.917439
0.392029 0.081124 0.918204
0.394839 0.081129 0.918257
0.397890 0.081182 0.918863
0.400925 0.081232 0.919426
0.403834 0.081256 0.919693
0.406805 0.081292 0.920099
0.409289 0.081230 0.919403
0.412262 0.081266 0.919810
0.414640 0.081185 0.918891
0.416933 0.081088 0.917798
0.419612 0.081068 0.917563
0.422343 0.081057 0.917443
0.424652 0.080966 0.916414
0.427238 0.080929 0.915994
0.430226 0.080968 0.916435
0.433360 0.081034 0.917180
0.436464 0.081093 0.917851
0.440138 0.081257 0.919705
0.444011 0.081455 0.921949
-0.429727 0.080635 0.882598
-0.428459 0.080901 0.885513
-0.429716 0.081651 0.893720
-0.424976 0.081263 0.889478
-0.421177 0.081052 0.887165
-0.418388 0.081034 0.886962
-0.415954 0.081084 0.887514
-0.413428 0.081117 0.887875
-0.410718 0.081114 0.887845
-0.408384 0.081186 0.888631
-0.405408 0.081130 0.888021
-0.402431 0.081074 0.887402
-0.400180 0.081164 0.888386
-0.397456 0.081158 0.888326
-0.395580 0.081327 0.890173
-0.392896 0.081331 0.890217
-0.390383 0.081370 0.890649
-0.387786 0.081393 0.890895
-0.384908 0.081356 0.890494
-0.381117 0.081125 0.887959
-0.378097 0.081055 0.887199
-0.375064 0.080982 0.886396
-0.372049 0.080911 0.885625
-0.369013 0.080835 0.884794
-0.366229 0.080814 0.884558
-0.363693 0.080847 0.884922
-0.360903 0.080824 0.884669
-0.358364 0.080857 0.885030
-0.355589 0.080837 0.884811
-0.352893 0.080835 0.884786
-0.349867 0.080756 0.883929
-0.346998 0.080713 0.883456
