ply
format ascii 1.0
comment generated by convert_depth_to_ply.py
element vertex 1742
property float x
property float y
property float z
end_header
0.185769 0.694928 3.141408
0.185071 0.655573 2.963504
0.194821 0.655333 2.962421
0.203425 0.651444 2.944841
0.213009 0.650906 2.942408
0.222370 0.649763 2.937241
0.231134 0.647045 2.924955
0.240075 0.645021 2.915807
0.248839 0.642697 2.905299
0.257659 0.640686 2.896210
0.266237 0.638239 2.885150
0.274742 0.635793 2.874092
0.283060 0.633093 2.861886
0.291373 0.630555 2.850413
0.299569 0.627933 2.838561
0.308031 0.626011 2.829870
0.316282 0.623787 2.819818
0.324864 0.622324 2.813206
0.333195 0.620475 2.804846
0.341383 0.618468 2.795773
0.349650 0.616707 2.787812
0.357655 0.614585 2.778220
0.365657 0.612564 2.769086
0.373393 0.610208 2.758436
0.381384 0.608372 2.750137
0.388823 0.605761 2.738334
0.396757 0.604024 2.730480
0.404465 0.602027 2.721453
0.412238 0.600212 2.713247
0.420149 0.598671 2.706282
0.428054 0.597186 2.699568
0.435785 0.595524 2.692057
0.443731 0.594217 2.686148
0.451369 0.592557 2.678643
0.459068 0.591039 2.671783
0.466748 0.589556 2.665075
0.474380 0.588066 2.658342
0.481968 0.586579 2.651618
0.489486 0.585060 2.644756
0.496513 0.583020 2.635530
0.503955 0.581528 2.628788
0.511441 0.580136 2.622494
0.519132 0.579020 2.617451
0.526443 0.577524 2.610689
0.533872 0.576203 2.604716
0.541076 0.574686 2.597856
0.548931 0.573897 2.594290
0.556968 0.573318 2.591676
0.562271 0.569987 2.576616
0.563123 0.562311 2.541915
0.563433 0.554327 2.505826
0.570828 0.553445 2.501837
0.577661 0.552051 2.495536
0.584271 0.550486 2.488464
0.591020 0.549094 2.482168
0.598110 0.548052 2.477462
0.604666 0.546556 2.470699
0.611783 0.545601 2.466378
0.619463 0.545166 2.464415
0.627166 0.544762 2.462588
0.634926 0.544418 2.461034
0.644454 0.545579 2.466279
0.665797 0.556588 2.516045
0.676839 0.558820 2.526136
0.685880 0.559365 2.528600
0.694500 0.559558 2.529471
0.703704 0.560211 2.532425
0.713451 0.561277 2.537241
0.722071 0.561440 2.537981
0.731387 0.562136 2.541124
0.741266 0.563243 2.546128
0.751154 0.564332 2.551052
0.760725 0.565161 2.554800
0.770074 0.565809 2.557729
0.780435 0.567178 2.563917
0.789861 0.567845 2.566935
0.799464 0.568625 2.570459
0.808951 0.569306 2.573537
0.818912 0.570303 2.578044
0.829060 0.571408 2.583039
0.838780 0.572199 2.586614
0.848774 0.573158 2.590952
0.859195 0.574385 2.596496
0.869389 0.575436 2.601247
0.879872 0.576656 2.606763
0.890127 0.577705 2.611503
0.900581 0.578861 2.616730
0.910943 0.579936 2.621592
0.921628 0.581195 2.627282
0.932675 0.582657 2.633889
0.942690 0.583452 2.637486
0.954059 0.585064 2.644770
0.964513 0.586090 2.649408
0.975426 0.587374 2.655213
0.986960 0.589006 2.662590
0.998317 0.590504 2.669361
1.008494 0.591283 2.672884
1.019839 0.592728 2.679418
1.029598 0.593235 2.681707
1.042950 0.595785 2.693233
1.059688 0.600209 2.713234
0.953921 0.535756 2.421876
0.922473 0.513771 2.322492
0.925155 0.511001 2.309970
0.928721 0.508760 2.299840
0.933923 0.507445 2.293896
0.939808 0.506519 2.289711
0.948421 0.507067 2.292186
0.961979 0.510229 2.306479
0.978663 0.514986 2.327984
0.992836 0.518357 2.343223
1.004097 0.520168 2.351408
1.014169 0.521339 2.356704
1.023816 0.522276 2.360939
1.033799 0.523368 2.365876
1.042408 0.523754 2.367622
1.051699 0.524474 2.370876
1.061625 0.525498 2.375504
1.070361 0.525922 2.377422
1.079010 0.526297 2.379118
1.086949 0.526324 2.379237
1.094498 0.526162 2.378506
1.102060 0.526008 2.377812
1.109513 0.525806 2.376897
1.122637 0.528274 2.388055
1.056918 0.493868 2.232521
0.749066 0.347584 1.571246
0.753405 0.347184 1.569438
0.755020 0.345542 1.562017
0.756335 0.343787 1.554082
0.759582 0.342927 1.550197
0.762210 0.341802 1.545110
0.764817 0.340682 1.540047
0.767383 0.339559 1.534971
0.769307 0.338168 1.528684
0.771692 0.336998 1.523392
0.774172 0.335883 1.518353
0.777351 0.335084 1.514742
0.780084 0.334105 1.510314
0.784611 0.333901 1.509393
0.787160 0.332863 1.504703
-1.437511 0.604342 2.691373
-1.430250 0.605043 2.694497
-1.420201 0.604567 2.692377
-1.410742 0.604337 2.691355
-1.402279 0.604534 2.692232
-1.393859 0.604752 2.693202
-1.383934 0.604316 2.691262
-1.375395 0.604484 2.692006
-1.367059 0.604743 2.693159
-1.359938 0.605546 2.696739
-1.352589 0.606259 2.699911
-1.342292 0.605650 2.697200
-1.329180 0.603755 2.688760
-1.315896 0.601755 2.679855
-1.306142 0.601353 2.678066
-1.455701 0.674797 3.005138
-1.555359 0.725960 3.232990
-1.451476 0.682173 3.037987
-1.437497 0.680322 3.029745
-1.580949 0.753477 3.355531
-1.602888 0.769345 3.426198
-1.601083 0.773961 3.446757
-1.595026 0.776574 3.458393
-1.588249 0.778872 3.468625
-1.579660 0.780308 3.475020
-1.572704 0.782577 3.485127
-1.565418 0.784715 3.494648
-1.557782 0.786708 3.503524
-1.549178 0.788238 3.510338
-1.542167 0.790608 3.520894
-1.533544 0.792182 3.527901
-1.525496 0.794079 3.536350
-1.517508 0.796037 3.545070
-1.508957 0.797728 3.552598
-1.502633 0.800632 3.565532
-1.496222 0.803535 3.578461
-1.417873 0.767542 3.418170
-1.186113 0.647255 2.882482
-1.175242 0.646529 2.879252
-1.165499 0.646418 2.878758
-1.157229 0.647129 2.881922
-1.151083 0.649049 2.890475
-1.144977 0.651024 2.899270
-1.141298 0.654424 2.914412
-1.285164 0.743208 3.309802
-1.406007 0.820091 3.652192
-1.393924 0.820104 3.652248
-1.383914 0.821347 3.657784
-1.375367 0.823488 3.667320
-1.365499 0.824869 3.673470
-1.356499 0.826804 3.682087
-1.346417 0.828109 3.687898
-1.338271 0.830639 3.699167
-1.330873 0.833685 3.712732
-1.318833 0.833852 3.713476
-1.220707 0.779082 3.469560
-1.124992 0.724822 3.227919
-1.114006 0.724635 3.227086
-1.229378 0.807434 3.595823
-1.266064 0.839668 3.739374
-1.257024 0.841914 3.749377
-1.244984 0.842175 3.750542
-1.232506 0.842143 3.750397
-1.220106 0.842163 3.750488
-1.207529 0.842060 3.750030
-1.195283 0.842189 3.750603
-1.182532 0.841961 3.749589
-1.170986 0.842595 3.752410
-1.157627 0.841924 3.749423
-1.145935 0.842464 3.751829
-1.133589 0.842530 3.752122
-1.121971 0.843144 3.754857
-1.109655 0.843242 3.755292
-1.098875 0.844522 3.760994
-0.837298 0.650875 2.898607
-0.795687 0.625708 2.786526
-0.789593 0.628207 2.797656
-0.783532 0.630792 2.809170
-1.016269 0.827998 3.687406
-1.010793 0.833561 3.712178
-0.998934 0.833931 3.713828
-0.986287 0.833646 3.712555
-0.973819 0.833506 3.711934
-0.962226 0.834121 3.714672
-0.949699 0.833931 3.713826
-0.937313 0.833863 3.713523
-0.924701 0.833588 3.712300
-0.912318 0.833515 3.711974
-0.900665 0.834117 3.714655
-0.888987 0.834712 3.717304
-0.877156 0.835177 3.719377
-0.863887 0.834268 3.715327
-0.850994 0.833700 3.712797
-0.837558 0.832576 3.707792
-0.760293 0.767024 3.415863
-0.728470 0.746028 3.322359
-0.760569 0.790855 3.521991
-0.791455 0.835798 3.722141
-0.782078 0.838973 3.736280
-0.758581 0.826858 3.682329
-0.636896 0.705573 3.142197
-0.619124 0.697286 3.105293
-0.621411 0.711692 3.169445
-0.719266 0.837928 3.731626
-0.703073 0.833394 3.711436
-0.691036 0.833711 3.712849
-0.680057 0.835341 3.720105
-0.667616 0.835202 3.719485
-0.655000 0.834834 3.717846
-0.642977 0.835221 3.719573
-0.630106 0.834503 3.716372
-0.617792 0.834506 3.716389
-0.605476 0.834508 3.716396
-0.592587 0.833704 3.712815
-0.580559 0.834102 3.714588
-0.567917 0.833615 3.712421
-0.555366 0.833245 3.710772
-0.543273 0.833560 3.712174
-0.530682 0.833109 3.710166
-0.518147 0.832726 3.708459
-0.506025 0.833003 3.709692
-0.493448 0.832527 3.707575
-0.480924 0.832118 3.705755
-0.468825 0.832444 3.707204
-0.456713 0.832762 3.708619
-0.444586 0.833070 3.709993
-0.432371 0.833227 3.710691
-0.419840 0.832764 3.708627
-0.407329 0.832317 3.706637
-0.395133 0.832502 3.707462
-0.382375 0.831480 3.702911
-0.370106 0.831487 3.702942
-0.357900 0.831641 3.703629
-0.345649 0.831700 3.703889
-0.333355 0.831654 3.703686
-0.314093 0.813556 3.623089
-0.299629 0.806942 3.593635
-0.287554 0.806480 3.591577
-0.275244 0.805290 3.586276
-0.268379 0.820642 3.654644
-0.260253 0.833408 3.711497
-0.248003 0.833578 3.712255
-0.235714 0.833630 3.712486
-0.223270 0.833108 3.710159
-0.210830 0.832542 3.707639
-0.198542 0.832544 3.707650
-0.186251 0.832530 3.707587
-0.173840 0.831942 3.704970
-0.161450 0.831371 3.702426
-0.149180 0.831373 3.702434
-0.136903 0.831341 3.702291
-0.124534 0.830683 3.699362
-0.112190 0.830063 3.696600
-0.099938 0.830063 3.696599
-0.087693 0.830119 3.696849
-0.075445 0.830166 3.697060
-0.063195 0.830205 3.697232
-0.050943 0.830235 3.697365
-0.038690 0.830256 3.697458
-0.026431 0.830128 3.696892
-0.014179 0.830130 3.696900
-0.001926 0.829974 3.696205
0.010316 0.829301 3.693207
0.022574 0.829953 3.696112
0.034828 0.830056 3.696571
0.047085 0.830157 3.697017
0.059335 0.830107 3.696798
0.071587 0.830110 3.696810
0.083902 0.830736 3.699599
0.096256 0.831529 3.703131
0.108518 0.831445 3.702755
0.120776 0.831351 3.702338
0.133030 0.831250 3.701886
0.145401 0.831833 3.704485
0.157838 0.832669 3.708206
0.170120 0.832630 3.708034
0.182238 0.831848 3.704549
0.194366 0.831207 3.701696
0.206829 0.831989 3.705180
0.217881 0.827328 3.684420
0.222382 0.799606 3.560965
0.212895 0.726916 3.237247
0.203184 0.660473 2.941348
0.212632 0.659541 2.937196
0.221737 0.657674 2.928883
0.230729 0.655640 2.919826
0.240246 0.655205 2.917890
0.249220 0.653380 2.909759
0.258191 0.651681 2.902194
0.266680 0.648931 2.889946
0.275089 0.646185 2.877720
0.283437 0.643484 2.865689
0.291719 0.640814 2.853801
0.299894 0.638084 2.841642
0.308041 0.635462 2.829965
0.316453 0.633525 2.821339
0.324638 0.631258 2.811243
0.333137 0.629713 2.804361
0.341421 0.627854 2.796082
0.349407 0.625561 2.785871
0.357611 0.623766 2.777879
0.365403 0.621360 2.767162
0.373435 0.619471 2.758749
0.381150 0.617158 2.748449
0.388763 0.614792 2.737913
0.396651 0.612959 2.729748
0.404333 0.610897 2.720567
0.411952 0.608830 2.711364
0.419859 0.607270 2.704414
0.427758 0.605764 2.697706
0.435615 0.604259 2.691007
0.443297 0.602578 2.683519
0.451158 0.601202 2.677391
0.458753 0.599530 2.669948
0.466428 0.598026 2.663247
0.474173 0.596665 2.657185
0.481754 0.595150 2.650440
0.489288 0.593634 2.643686
0.496174 0.591398 2.633730
0.503612 0.589885 2.626995
0.511003 0.588371 2.620252
0.517962 0.586417 2.611550
0.525316 0.584968 2.605095
0.532989 0.583916 2.600409
0.540629 0.582861 2.595711
0.548326 0.581900 2.591431
0.555981 0.580924 2.587085
0.562616 0.578929 2.578200
0.570087 0.577840 2.573353
0.575261 0.574489 2.558429
0.572493 0.563420 2.509134
0.578833 0.561504 2.500601
0.585060 0.559533 2.491823
0.591679 0.557987 2.484936
0.598398 0.556576 2.478655
0.605417 0.555479 2.473769
0.612568 0.554531 2.469545
0.619764 0.553647 2.465610
0.627470 0.553237 2.463784
0.635125 0.552792 2.461804
0.644553 0.553883 2.466661
0.664583 0.563942 2.511459
0.675599 0.566199 2.521508
0.684224 0.566420 2.522494
0.693245 0.566961 2.524901
0.702441 0.567629 2.527880
0.711712 0.568343 2.531058
0.720768 0.568870 2.533403
0.730008 0.569527 2.536332
0.739333 0.570236 2.539489
0.749200 0.571342 2.544415
0.758631 0.572095 2.547767
0.768066 0.572835 2.551060
0.778406 0.574225 2.557252
0.787809 0.574902 2.560267
0.797386 0.575690 2.563777
0.806846 0.576378 2.566839
0.816784 0.577389 2.571344
0.826907 0.578509 2.576332
0.836635 0.579333 2.580000
0.847255 0.580751 2.586316
0.857007 0.581552 2.589883
0.867835 0.583060 2.596598
0.877594 0.583827 2.600014
0.887821 0.584888 2.604738
0.898359 0.586131 2.610272
0.909319 0.587623 2.616919
0.919402 0.588525 2.620937
0.930533 0.590075 2.627840
0.941234 0.591326 2.633412
0.951700 0.592409 2.638232
0.963169 0.594089 2.645717
0.973929 0.595307 2.651139
0.984685 0.596500 2.656451
0.996189 0.598121 2.663669
1.007412 0.599546 2.670017
1.017684 0.600385 2.673754
1.028411 0.601477 2.678615
1.041195 0.603742 2.688703
1.058236 0.608416 2.709517
0.957550 0.545895 2.431089
0.919560 0.519863 2.315158
0.921244 0.516505 2.300203
0.924282 0.513956 2.288849
0.928224 0.511946 2.279899
0.933393 0.510640 2.274083
0.939124 0.509660 2.269718
0.947399 0.510065 2.271521
0.959718 0.512624 2.282917
0.978549 0.518594 2.309505
0.998653 0.525140 2.338658
1.010825 0.527447 2.348933
1.022029 0.529218 2.356817
1.031162 0.529897 2.359843
1.039302 0.530059 2.360565
1.050170 0.531601 2.367431
1.060087 0.532641 2.372064
1.069730 0.533530 2.376020
1.078375 0.533911 2.377718
1.087097 0.534325 2.379561
1.093904 0.533798 2.377215
1.101461 0.533642 2.376520
1.108867 0.533416 2.375511
1.120963 0.535433 2.384495
1.005432 0.476887 2.123768
0.750075 0.353295 1.573364
0.753310 0.352369 1.569240
0.754585 0.350545 1.561118
0.755789 0.348714 1.552960
0.759147 0.347894 1.549309
0.761122 0.346456 1.542904
0.764381 0.345617 1.539170
0.767080 0.344538 1.534366
0.769622 0.343403 1.529311
0.772013 0.342216 1.524025
0.774495 0.341085 1.518987
0.777677 0.340274 1.515376
0.780404 0.339277 1.510933
0.784319 0.338805 1.508832
0.786722 0.337690 1.503866
-1.439273 0.614062 2.694671
-1.431755 0.614668 2.697332
-1.420828 0.613810 2.693565
-1.412139 0.613913 2.694020
-1.402849 0.613755 2.693326
-1.393151 0.613415 2.691835
-1.385214 0.613852 2.693751
-1.375948 0.613701 2.693088
-1.367267 0.613811 2.693570
-1.359152 0.614178 2.695181
-1.352005 0.614990 2.698745
-1.341729 0.614380 2.696068
-1.330098 0.613138 2.690616
-1.316812 0.611110 2.681719
-1.308135 0.611209 2.682152
-1.448040 0.681207 2.989322
-1.562583 0.740156 3.248007
-1.456677 0.694777 3.048873
-1.439112 0.691194 3.033148
-1.572803 0.760718 3.338241
-1.602267 0.780460 3.424871
-1.600674 0.785246 3.445877
-1.594704 0.787940 3.457695
-1.587864 0.790239 3.467784
-1.580762 0.792440 3.477445
-1.573119 0.794401 3.486048
-1.565070 0.796183 3.493871
-1.558017 0.798503 3.504053
-1.550033 0.800377 3.512276
-1.541855 0.802179 3.520181
-1.534414 0.804394 3.529903
-1.526388 0.806334 3.538417
-1.518115 0.808174 3.546488
-1.510329 0.810302 3.555828
-1.503455 0.812958 3.567481
-1.497930 0.816391 3.582547
-1.441026 0.791652 3.473988
-1.187492 0.657623 2.885832
-1.175261 0.656135 2.879299
-1.166861 0.656778 2.882123
-1.158579 0.657499 2.885286
-1.151877 0.659136 2.892469
-1.145282 0.660862 2.900044
-1.141309 0.664143 2.914442
-1.282055 0.752413 3.301794
-1.405257 0.831818 3.650244
-1.394409 0.832564 3.653520
-1.384391 0.833823 3.659045
-1.375171 0.835589 3.666795
-1.366393 0.837658 3.675874
-1.355637 0.838541 3.679747
-1.346177 0.840248 3.687241
-1.336707 0.841981 3.694845
-1.328584 0.844602 3.706346
-1.317596 0.845434 3.709995
-1.247030 0.807692 3.544374
-1.121798 0.733490 3.218755
-1.108991 0.732078 3.212558
-1.220603 0.813567 3.570155
-1.260089 0.848107 3.721726
-1.249520 0.849308 3.726995
-1.236170 0.848623 3.723989
-1.222361 0.847606 3.719526
-1.210004 0.847585 3.719436
-1.197518 0.847472 3.718942
-1.185968 0.848027 3.721375
-1.172702 0.847353 3.718420
-1.161285 0.848015 3.721324
-1.148991 0.848045 3.721453
-1.136414 0.847863 3.720655
-1.124917 0.848492 3.723416
-1.113406 0.849125 3.726194
-1.101180 0.849220 3.726613
-1.085179 0.846373 3.714119
-0.841084 0.663520 2.911710
-0.796324 0.635502 2.788756
-0.789708 0.637622 2.798062
-0.777637 0.635337 2.788034
-1.017122 0.840991 3.690502
-1.003879 0.840145 3.686787
-0.992413 0.840783 3.689586
-0.979864 0.840508 3.688380
-0.967624 0.840494 3.688320
-0.954988 0.840132 3.686729
-0.942570 0.839954 3.685950
-0.929422 0.839113 3.682259
-0.917696 0.839550 3.684177
-0.905321 0.839398 3.683509
-0.893032 0.839322 3.683174
-0.881452 0.839919 3.685797
-0.869830 0.840492 3.688312
-0.856563 0.839471 3.683830
-0.844142 0.839260 3.682904
-0.836379 0.843742 3.702573
-0.808152 0.827406 3.630886
-0.734627 0.763499 3.350443
-0.730814 0.771192 3.384205
-0.777308 0.833041 3.655613
-0.774632 0.843318 3.700709
-0.765684 0.846987 3.716811
-0.701938 0.789168 3.463085
-0.623943 0.713141 3.129460
-0.613420 0.712966 3.128692
-0.654349 0.773614 3.394832
-0.699864 0.841901 3.694494
-0.685587 0.839413 3.683575
-0.674425 0.840717 3.689296
-0.662485 0.841082 3.690897
-0.649779 0.840469 3.688211
-0.637517 0.840419 3.687990
-0.624820 0.839782 3.685196
-0.612544 0.839697 3.684822
-0.600590 0.840058 3.686405
-0.587889 0.839367 3.683375
-0.575627 0.839289 3.683029
-0.563441 0.839319 3.683164
-0.550891 0.838798 3.680874
-0.538698 0.838808 3.680919
-0.526438 0.838710 3.680492
-0.513956 0.838248 3.678461
-0.501766 0.838251 3.678475
-0.489733 0.838521 3.679660
-0.477260 0.838034 3.677522
-0.465013 0.837928 3.677058
-0.452830 0.837935 3.677088
-0.440806 0.838245 3.678449
-0.428768 0.838544 3.679762
-0.416677 0.838756 3.680693
-0.404350 0.838490 3.679526
-0.391935 0.838020 3.677463
-0.379711 0.837940 3.677110
-0.367256 0.837329 3.674428
-0.354895 0.836897 3.672533
-0.342821 0.837136 3.673582
-0.330825 0.837589 3.675573
-0.313621 0.824390 3.617648
-0.299987 0.819894 3.597919
-0.287499 0.818290 3.590882
-0.275344 0.817539 3.587584
-0.267084 0.828804 3.637019
-0.258228 0.839196 3.682625
-0.245892 0.838750 3.680667
-0.233739 0.838913 3.681381
-0.221578 0.839066 3.682053
-0.209383 0.839100 3.682203
-0.197013 0.838390 3.679084
-0.184697 0.837837 3.676658
-0.172536 0.837955 3.677179
-0.160347 0.837947 3.677140
-0.148033 0.837228 3.673987
-0.135772 0.836705 3.671691
-0.123603 0.836705 3.671690
-0.111427 0.836655 3.671470
-0.099265 0.836706 3.671698
-0.087101 0.836753 3.671902
-0.074879 0.836172 3.669351
-0.062759 0.836712 3.671720
-0.050591 0.836742 3.671852
-0.038392 0.836084 3.668965
-0.026232 0.836096 3.669019
-0.014072 0.836099 3.669034
-0.001912 0.836094 3.669010
0.010240 0.835420 3.666054
0.022407 0.836057 3.668846
0.034565 0.836025 3.668706
0.046725 0.836029 3.668723
0.058935 0.836751 3.671894
0.071101 0.836705 3.671693
0.083275 0.836763 3.671948
0.095445 0.836766 3.671958
0.107695 0.837387 3.674683
0.119963 0.838006 3.677400
0.132138 0.837925 3.677044
0.144325 0.837930 3.677067
0.156490 0.837809 3.676537
0.168649 0.837681 3.675974
0.180802 0.837543 3.675367
0.192950 0.837397 3.674726
0.205136 0.837427 3.674861
0.216917 0.835892 3.668125
0.229611 0.837850 3.676715
0.241793 0.837839 3.676669
0.254457 0.839417 3.683593
0.250415 0.788263 3.459116
0.224661 0.676235 2.967504
0.231242 0.666849 2.926317
0.240157 0.664683 2.916812
0.248939 0.662327 2.906473
0.258273 0.661561 2.903111
0.267318 0.660138 2.896869
0.275462 0.656664 2.881621
0.283773 0.653809 2.869092
0.291798 0.650501 2.854578
0.300025 0.647836 2.842883
0.308396 0.645635 2.833224
0.316568 0.643162 2.822370
0.325013 0.641367 2.814495
0.333184 0.639147 2.804754
0.341382 0.637099 2.795767
0.349300 0.634649 2.785015
0.357504 0.632832 2.777042
0.365298 0.630401 2.766371
0.373378 0.628568 2.758331
0.380882 0.625876 2.746517
0.388806 0.623984 2.738214
0.396372 0.621619 2.727834
0.404256 0.619844 2.720046
0.412057 0.618024 2.712058
0.419812 0.616213 2.704114
0.427459 0.614324 2.695821
0.435311 0.612799 2.689128
0.443116 0.611271 2.682427
0.450870 0.609734 2.675682
0.458558 0.608170 2.668815
0.466226 0.606638 2.662092
0.473869 0.605131 2.655479
0.481444 0.603594 2.648735
0.488972 0.602055 2.641982
0.496234 0.600246 2.634046
0.503566 0.598586 2.626758
0.511026 0.597130 2.620369
0.517992 0.595154 2.611700
0.524952 0.593238 2.603292
0.532532 0.592073 2.598181
0.539796 0.590599 2.591712
0.547489 0.589633 2.587473
0.555539 0.589076 2.585027
0.563178 0.588106 2.580772
0.570268 0.586602 2.574169
0.577768 0.585556 2.569581
0.579718 0.578998 2.540801
0.581738 0.572697 2.513151
0.586867 0.569590 2.499518
0.592918 0.567453 2.490139
0.599098 0.565497 2.481556
0.605631 0.563921 2.474642
0.612281 0.562496 2.468388
0.619349 0.561487 2.463961
0.627048 0.561069 2.462125
0.635824 0.561613 2.464513
0.647591 0.564752 2.478287
0.664756 0.572460 2.512113
0.673953 0.573201 2.515364
0.682434 0.573322 2.515896
0.691544 0.573963 2.518708
0.700711 0.574635 2.521654
0.709848 0.575267 2.524429
0.719003 0.575898 2.527199
0.728208 0.576554 2.530079
0.737384 0.577174 2.532797
0.747351 0.578390 2.538136
0.756649 0.579068 2.541110
0.766584 0.580213 2.546136
0.776376 0.581227 2.550583
0.785756 0.581913 2.553595
0.795307 0.582710 2.557091
0.804739 0.583404 2.560137
0.814654 0.584430 2.564640
0.824648 0.585491 2.569295
0.834454 0.586397 2.573273
0.845053 0.587838 2.579594
0.854881 0.588718 2.583458
0.865581 0.590176 2.589855
0.875458 0.591049 2.593687
0.886233 0.592506 2.600079
0.896673 0.593713 2.605375
0.907305 0.595022 2.611121
0.918302 0.596545 2.617803
0.928864 0.597758 2.623127
0.939558 0.599033 2.628722
0.950704 0.600571 2.635470
0.960838 0.601447 2.639314
0.972199 0.603068 2.646428
0.983800 0.604808 2.654062
0.995119 0.606345 2.660809
1.005264 0.607146 2.664325
1.016951 0.608857 2.671831
1.026786 0.609438 2.674382
1.039529 0.611721 2.684401
1.057448 0.616985 2.707501
0.965648 0.558682 2.451650
0.917989 0.526677 2.311202
0.919144 0.522975 2.294960
0.921347 0.519926 2.281580
0.924759 0.517604 2.271388
0.928593 0.515553 2.262388
0.934192 0.514507 2.257798
0.940289 0.513750 2.254475
0.947384 0.513545 2.253578
0.955265 0.513767 2.254550
0.964669 0.514798 2.259075
0.981019 0.519491 2.279670
1.007476 0.529424 2.323257
1.024189 0.534124 2.343884
1.037409 0.536946 2.356268
1.049416 0.539102 2.365729
1.059706 0.540351 2.371210
1.069091 0.541124 2.374599
1.078261 0.541777 2.377467
1.087333 0.542372 2.380077
1.094143 0.541838 2.377734
1.101703 0.541681 2.377043
1.109814 0.541794 2.377541
1.120493 0.543151 2.383495
0.972787 0.468250 2.054812
0.749615 0.358318 1.572397
0.752913 0.357410 1.568412
0.754145 0.355540 1.560208
0.756069 0.354020 1.553535
0.758706 0.352852 1.548410
0.761334 0.351695 1.543334
0.763940 0.350544 1.538282
0.766699 0.349477 1.533603
0.769233 0.348323 1.528537
0.771692 0.347150 1.523391
0.774183 0.346007 1.518376
0.777388 0.345196 1.514814
0.780723 0.344452 1.511550
0.784515 0.343918 1.509207
0.786277 0.342507 1.503015
-1.441264 0.623903 2.698398
-1.433740 0.624521 2.701072
-1.423913 0.624138 2.699414
-1.414092 0.623752 2.697747
-1.404338 0.623391 2.696185
-1.394824 0.623133 2.695068
-1.385018 0.622740 2.693370
-1.376285 0.622828 2.693748
-1.367920 0.623084 2.694856
-1.360445 0.623752 2.697744
-1.352170 0.624059 2.699073
-1.343342 0.624114 2.699309
-1.330992 0.622522 2.692424
-1.319857 0.621480 2.687921
-1.310304 0.621175 2.686599
-1.449146 0.691696 2.991606
-1.559288 0.749395 3.241156
-1.461899 0.707464 3.059801
-1.435791 0.699683 3.026150
-1.568476 0.769719 3.329057
-1.601762 0.791622 3.423790
-1.600120 0.796453 3.444685
-1.594747 0.799483 3.457788
-1.588269 0.801999 3.468668
-1.580368 0.803828 3.476579
-1.573465 0.806194 3.486813
-1.565554 0.808076 3.494951
-1.557577 0.809951 3.503061
-1.550310 0.812226 3.512903
-1.542343 0.814167 3.521296
-1.534094 0.815987 3.529166
-1.526598 0.818238 3.538904
-1.518608 0.820258 3.547639
-1.511378 0.822722 3.558299
-1.503705 0.824983 3.568076
-1.499995 0.829471 3.587484
-1.459734 0.813657 3.519090
-1.189524 0.668382 2.890770
-1.176529 0.666448 2.882406
-1.167736 0.666882 2.884283
-1.160022 0.667944 2.888878
-1.152918 0.669379 2.895082
-1.145859 0.670864 2.901505
-1.139876 0.673008 2.910781
-1.277656 0.760796 3.290465
-1.401937 0.841987 3.641621
-1.392952 0.843856 3.649702
-1.384298 0.845959 3.658800
-1.374420 0.847345 3.664793
-1.364480 0.848718 3.670730
-1.354758 0.850252 3.677363
-1.343287 0.850705 3.679326
-1.333440 0.852206 3.685815
-1.324397 0.854252 3.694664
-1.312606 0.854547 3.695943
-1.275716 0.838355 3.625908
-1.119510 0.742698 3.212190
-1.105190 0.740237 3.201547
-1.208749 0.817447 3.535483
-1.250321 0.853838 3.692877
-1.240978 0.855836 3.701515
-1.225763 0.853783 3.692636
-1.212241 0.852880 3.688732
-1.200694 0.853362 3.690817
-1.188547 0.853423 3.691082
-1.176090 0.853261 3.690379
-1.164733 0.853902 3.693151
-1.151605 0.853244 3.690304
-1.140213 0.853872 3.693023
-1.126792 0.852977 3.689152
-1.115574 0.853750 3.692494
-1.104138 0.854370 3.695177
-1.091210 0.853838 3.692873
-1.075823 0.851346 3.682098
-0.840765 0.672969 2.910609
-0.798739 0.646750 2.797214
-0.791484 0.648401 2.804355
-0.783852 0.649780 2.810316
-1.002980 0.841425 3.639188
-0.993418 0.843548 3.648368
-0.982238 0.844331 3.651756
-0.970919 0.845014 3.654709
-0.959422 0.845556 3.657054
-0.947037 0.845320 3.656033
-0.934768 0.845183 3.655440
-0.922249 0.844813 3.653841
-0.910116 0.844791 3.653748
-0.898650 0.845397 3.656366
-0.886952 0.845797 3.658098
-0.873970 0.844968 3.654510
-0.862463 0.845561 3.657076
-0.850004 0.845224 3.655618
-0.836928 0.844256 3.651431
-0.824757 0.844185 3.651125
-0.813300 0.844853 3.654014
-0.752273 0.793271 3.430922
-0.717697 0.768426 3.323466
-0.757420 0.823596 3.562078
-0.767466 0.847733 3.666471
-0.757313 0.849977 3.676174
-0.737557 0.841339 3.638817
-0.629859 0.730431 3.159134
-0.613260 0.723203 3.127875
-0.612776 0.735058 3.179147
-0.682313 0.832791 3.601846
-0.681275 0.846331 3.660404
-0.668359 0.845339 3.656116
-0.657313 0.846718 3.662082
-0.644729 0.846132 3.659544
-0.632133 0.845507 3.656841
-0.619696 0.845075 3.654975
-0.607333 0.844728 3.653473
-0.595520 0.845146 3.655283
-0.583599 0.845428 3.656500
-0.571195 0.845005 3.654670
-0.558886 0.844709 3.653390
-0.546738 0.844647 3.653122
-0.534346 0.844198 3.651181
-0.522245 0.844198 3.651181
-0.510080 0.844091 3.650719
-0.497696 0.843610 3.648638
-0.485604 0.843611 3.648642
-0.473660 0.843874 3.649781
-0.461708 0.844140 3.650929
-0.449779 0.844461 3.652318
-0.437439 0.844007 3.650356
-0.425463 0.844249 3.651403
-0.413169 0.843856 3.649700
-0.401208 0.844141 3.650936
-0.389173 0.844281 3.651542
-0.376630 0.843294 3.647273
-0.364543 0.843298 3.647287
-0.352503 0.843412 3.647780
-0.340528 0.843697 3.649014
-0.328308 0.843373 3.647614
-0.313258 0.835476 3.613459
-0.299783 0.831320 3.595484
-0.287303 0.829691 3.588437
-0.275385 0.829617 3.588116
-0.265696 0.836552 3.618110
-0.256028 0.844212 3.651240
-0.244026 0.844555 3.652727
-0.231965 0.844721 3.653441
-0.219727 0.844224 3.651294
-0.207626 0.844226 3.651301
-0.195531 0.844252 3.651413
-0.183452 0.844355 3.651861
-0.171088 0.843071 3.646309
-0.159003 0.843071 3.646308
-0.146936 0.843173 3.646747
-0.134845 0.843147 3.646635
-0.122662 0.842480 3.643753
-0.110584 0.842465 3.643687
-0.098435 0.841843 3.640996
-0.086374 0.841900 3.641242
-0.074310 0.841948 3.641449
-0.062244 0.841987 3.641618
-0.050177 0.842017 3.641748
-0.038108 0.842038 3.641840
-0.026038 0.842051 3.641893
-0.013968 0.842054 3.641909
-0.001898 0.842049 3.641885
0.010172 0.842034 3.641823
0.022242 0.842011 3.641723
0.034310 0.841979 3.641584
0.046379 0.841983 3.641602
0.058490 0.842576 3.644166
0.070563 0.842517 3.643912
0.082702 0.843151 3.646655
0.094793 0.843196 3.646847
0.106886 0.843246 3.647062
0.118960 0.843151 3.646653
0.131030 0.843048 3.646209
0.143212 0.843625 3.648701
0.155282 0.843503 3.648176
0.167348 0.843374 3.647618
0.179413 0.843263 3.647135
0.191499 0.843252 3.647092
0.203740 0.843891 3.649853
0.215794 0.843725 3.649136
0.228214 0.844931 3.654351
0.240324 0.844924 3.654319
0.252879 0.846409 3.660742
0.265649 0.848444 3.669545
0.274708 0.838968 3.628559
0.276236 0.808251 3.495709
0.256913 0.721456 3.120319
0.249318 0.673034 2.910892
0.258330 0.671383 2.903750
0.266785 0.668456 2.891091
0.275380 0.666067 2.880761
0.283661 0.663108 2.867960
0.291920 0.660289 2.855772
0.300053 0.657372 2.843153
0.308202 0.654665 2.831446
0.316672 0.652781 2.823295
0.325217 0.651155 2.816264
0.333469 0.649049 2.807158
0.341750 0.647112 2.798778
0.349592 0.644468 2.787344
0.357423 0.641941 2.776415
0.365365 0.639737 2.766880
0.373140 0.637352 2.756568
0.380810 0.634909 2.745998
0.388761 0.633036 2.737900
0.396308 0.630606 2.727389
0.404134 0.628718 2.719224
0.411941 0.626884 2.711292
0.419720 0.625086 2.703517
0.427370 0.623176 2.695255
0.435224 0.621636 2.688594
0.443033 0.620094 2.681923
0.450790 0.618541 2.675209
0.458258 0.616659 2.667069
0.466178 0.615446 2.661821
0.473853 0.613959 2.655389
0.481103 0.611987 2.646862
0.488627 0.610427 2.640116
0.495965 0.608694 2.632622
0.502969 0.606618 2.623640
0.510291 0.604990 2.616601
0.517241 0.602982 2.607916
0.524516 0.601414 2.601133
0.531749 0.599847 2.594357
0.539347 0.598737 2.589556
0.547033 0.597757 2.585317
0.555062 0.597177 2.582808
0.562384 0.595865 2.577135
0.569906 0.594801 2.572534
0.577863 0.594217 2.570005
0.580914 0.588677 2.546046
0.583297 0.582629 2.519886
0.588280 0.579312 2.505539
0.594387 0.577178 2.496312
0.601487 0.576054 2.491449
0.607336 0.573778 2.481608
0.612889 0.571288 2.470837
0.619429 0.569772 2.464280
0.628745 0.570814 2.468787
0.640902 0.574377 2.484195
0.652860 0.577672 2.498450
0.663006 0.579302 2.505498
0.672179 0.580052 2.508744
0.681192 0.580647 2.511316
0.690292 0.581302 2.514148
0.699437 0.581977 2.517070
0.708513 0.582581 2.519681
0.717112 0.582782 2.520550
0.726293 0.583447 2.523426
0.735529 0.584141 2.526425
0.745387 0.585306 2.531467
0.754662 0.585993 2.534439
0.764043 0.586747 2.537697
0.774446 0.588260 2.544243
0.783698 0.588876 2.546908
0.793223 0.589682 2.550391
0.803150 0.590766 2.555081
0.813041 0.591802 2.559560
0.822747 0.592683 2.563372
0.832783 0.593782 2.568123
0.843020 0.594999 2.573389
0.853191 0.596147 2.578351
0.863619 0.597449 2.583982
0.874430 0.598988 2.590640
0.884283 0.599847 2.594358
0.895341 0.601500 2.601504
0.906369 0.603101 2.608428
0.916264 0.603924 2.611990
0.927522 0.605623 2.619336
0.938667 0.607217 2.626232
0.948620 0.608017 2.629694
0.960059 0.609747 2.637175
0.971572 0.611492 2.644722
0.982364 0.612756 2.650189
0.993439 0.614173 2.656317
1.004528 0.615573 2.662373
1.015398 0.616816 2.667749
1.025651 0.617666 2.671424
1.038019 0.619765 2.680501
1.052962 0.623351 2.696013
0.982784 0.576911 2.495156
0.918951 0.534939 2.313626
0.918880 0.530471 2.294301
0.919717 0.526596 2.277543
0.922221 0.523732 2.265154
0.926043 0.521656 2.256176
0.930309 0.519861 2.248415
0.935876 0.518816 2.243893
0.941459 0.517796 2.239484
0.947182 0.516869 2.235474
0.952683 0.515836 2.231005
0.957096 0.514234 2.224077
0.961818 0.512822 2.217969
0.968570 0.512505 2.216600
0.980232 0.514771 2.226400
1.012059 0.527515 2.281516
1.052093 0.544314 2.354175
1.067194 0.548062 2.370386
1.078301 0.549720 2.377556
1.087612 0.550444 2.380688
1.097478 0.551437 2.384982
1.107291 0.552389 2.389098
1.114382 0.551979 2.387327
1.133255 0.557370 2.410643
0.947461 0.462729 2.001316
0.748773 0.363150 1.570633
0.752569 0.362471 1.567697
0.754316 0.360821 1.560560
0.756165 0.359242 1.553734
0.758998 0.358149 1.549006
0.761628 0.356976 1.543931
0.764237 0.355808 1.538879
0.766937 0.354698 1.534079
0.769481 0.353530 1.529030
0.771880 0.352313 1.523763
0.774481 0.351202 1.518959
0.777666 0.350369 1.515356
0.781011 0.349618 1.512108
0.784204 0.348809 1.508610
0.786592 0.347655 1.503617
-1.443226 0.633756 2.702072
-1.435714 0.634394 2.704792
-1.425892 0.634013 2.703166
-1.416111 0.633645 2.701598
-1.406515 0.633356 2.700364
-1.396712 0.632969 2.698716
-1.387936 0.633046 2.699043
-1.379173 0.633130 2.699401
-1.369743 0.632906 2.698447
-1.362412 0.633656 2.701646
-1.355101 0.634425 2.704924
-1.344939 0.633861 2.702518
-1.332566 0.632240 2.695608
-1.322535 0.631716 2.693373
-1.313360 0.631597 2.692865
-1.450775 0.702453 2.994967
-1.572417 0.766597 3.268448
-1.467126 0.720226 3.070742
-1.433900 0.708832 3.022164
-1.554382 0.773796 3.299143
-1.600755 0.802527 3.421638
-1.599180 0.807457 3.442660
-1.595411 0.811343 3.459229
-1.588442 0.813646 3.469046
-1.580740 0.815605 3.477396
-1.573280 0.817717 3.486405
-1.566172 0.820046 3.496332
-1.558946 0.822346 3.506141
-1.551125 0.824366 3.514750
-1.542927 0.826214 3.522629
-1.535481 0.828495 3.532357
-1.527450 0.830494 3.540879
-1.519158 0.832381 3.548924
-1.511502 0.834648 3.558589
-1.505433 0.837834 3.572175
-1.502497 0.842829 3.593468
-1.476230 0.834710 3.558856
-1.192868 0.679921 2.898897
-1.177978 0.676885 2.885955
-1.168298 0.676819 2.885671
-1.160968 0.678124 2.891235
-1.153467 0.679349 2.896460
-1.146541 0.680937 2.903230
-1.140060 0.682818 2.911252
-1.267320 0.765518 3.263846
-1.397792 0.851597 3.630853
-1.390091 0.854260 3.642206
-1.380091 0.855544 3.647681
-1.370437 0.857067 3.654173
-1.359093 0.857551 3.656236
-1.346774 0.857422 3.655690
-1.335859 0.858194 3.658981
-1.325022 0.859030 3.662545
-1.316029 0.861088 3.671320
-1.302791 0.860382 3.668307
-1.289026 0.859310 3.663739
-1.118641 0.752817 3.209698
-1.103438 0.749715 3.196472
-1.196153 0.820588 3.498642
-1.240667 0.859456 3.664362
-1.230601 0.860911 3.670564
-1.215365 0.858741 3.661314
-1.202913 0.858515 3.660348
-1.190506 0.858316 3.659501
-1.179275 0.858970 3.662287
-1.166318 0.858367 3.659716
-1.154999 0.858970 3.662287
-1.141857 0.858214 3.659067
-1.130531 0.858824 3.661664
-1.117369 0.858035 3.658302
-1.106099 0.858698 3.661130
-1.094759 0.859321 3.663787
-1.081783 0.858660 3.660967
-1.067409 0.856862 3.653301
-0.838459 0.680795 2.902626
-0.800027 0.657129 2.801724
-0.792604 0.658677 2.808324
-0.788917 0.663404 2.828475
-0.995714 0.847369 3.612827
-0.984824 0.848303 3.616807
-0.975328 0.850475 3.626069
-0.964225 0.851282 3.629511
-0.951259 0.850445 3.625941
-0.939928 0.851066 3.628588
-0.927542 0.850736 3.627182
-0.915480 0.850698 3.627022
-0.903993 0.851201 3.629166
-0.891679 0.850928 3.628000
-0.879616 0.850891 3.627841
-0.866528 0.849847 3.623392
-0.855119 0.850443 3.625933
-0.842877 0.850217 3.624967
-0.830478 0.849822 3.623287
-0.817606 0.848927 3.619467
-0.807824 0.851260 3.629415
-0.777606 0.831803 3.546458
-0.717111 0.778864 3.320749
-0.723761 0.798340 3.403786
-0.760450 0.852090 3.632957
-0.752417 0.856653 3.652409
-0.741556 0.858092 3.658546
-0.694392 0.816874 3.482808
-0.613428 0.733827 3.128729
-0.604204 0.735220 3.134672
-0.625028 0.773866 3.299443
-0.676652 0.852703 3.635566
-0.663753 0.851613 3.630920
-0.651956 0.851922 3.632239
-0.639633 0.851543 3.630623
-0.627065 0.850817 3.627527
-0.615010 0.850771 3.627332
-0.603040 0.850845 3.627647
-0.590726 0.850427 3.625862
-0.578710 0.850428 3.625870
-0.566925 0.850776 3.627352
-0.554370 0.849958 3.623865
-0.542357 0.849955 3.623852
-0.530505 0.850209 3.624937
-0.518008 0.849416 3.621555
-0.506007 0.849420 3.621573
-0.494133 0.849642 3.622517
-0.481852 0.849157 3.620450
-0.469654 0.848796 3.618913
-0.457838 0.849127 3.620322
-0.446008 0.849450 3.621697
-0.434165 0.849763 3.623034
-0.422270 0.849989 3.623998
-0.410376 0.850231 3.625027
-0.398131 0.849740 3.622936
-0.385909 0.849267 3.620918
-0.373991 0.849455 3.621720
-0.362042 0.849582 3.622262
-0.350120 0.849785 3.623128
-0.338116 0.849794 3.623165
-0.326123 0.849834 3.623336
-0.312722 0.846066 3.607272
-0.299484 0.842460 3.591897
-0.287073 0.840976 3.585568
-0.275177 0.840938 3.585409
-0.264694 0.845408 3.604465
-0.253890 0.849229 3.620757
-0.242176 0.850233 3.625038
-0.230214 0.850429 3.625871
-0.218203 0.850451 3.625968
-0.206026 0.849794 3.623164
-0.193884 0.849207 3.620662
-0.181912 0.849336 3.621212
-0.169912 0.849345 3.621250
-0.157795 0.848727 3.618615
-0.145799 0.848707 3.618531
-0.133711 0.848103 3.615957
-0.121739 0.848187 3.616313
-0.109763 0.848262 3.616633
-0.097769 0.848196 3.616352
-0.085789 0.848253 3.616596
-0.073807 0.848301 3.616800
-0.061832 0.848466 3.617504
-0.049844 0.848498 3.617641
-0.037850 0.848392 3.617189
-0.025862 0.848405 3.617242
-0.013873 0.848408 3.617257
-0.001885 0.848403 3.617234
0.010103 0.848388 3.617172
0.022095 0.848497 3.617635
0.034083 0.848465 3.617497
0.046070 0.848423 3.617321
0.058055 0.848373 3.617108
0.070039 0.848314 3.616856
0.082026 0.848318 3.616872
0.094074 0.848866 3.619209
0.106059 0.848780 3.618843
0.118042 0.848704 3.618517
0.130143 0.849411 3.621532
0.142127 0.849298 3.621051
0.154110 0.849200 3.620631
0.166106 0.849178 3.620541
0.178076 0.849039 3.619945
0.190074 0.849041 3.619956
0.202164 0.849431 3.621618
0.214342 0.850126 3.624581
0.226335 0.850052 3.624267
0.238581 0.850885 3.627817
0.250687 0.851167 3.629019
0.262589 0.850761 3.627287
0.274128 0.849265 3.620909
0.286669 0.850868 3.627744
0.300226 0.855238 3.646374
0.303900 0.832203 3.548167
0.281370 0.741802 3.162732
0.268022 0.681232 2.904489
0.275965 0.677103 2.886883
0.283267 0.671729 2.863973
0.291577 0.669017 2.852408
0.299998 0.666723 2.842628
0.308428 0.664588 2.833524
0.316723 0.662294 2.823746
0.324998 0.660095 2.814368
0.333142 0.657757 2.804399
0.341578 0.656108 2.797368
0.349331 0.653269 2.785264
0.357479 0.651295 2.776848
0.365297 0.648835 2.766362
0.372862 0.646057 2.754516
0.380671 0.643823 2.744993
0.388472 0.641683 2.735866
0.396366 0.639788 2.727788
0.403834 0.637306 2.717208
0.411801 0.635703 2.710373
0.419586 0.633894 2.702658
0.427312 0.632072 2.694889
0.434946 0.630192 2.686877
0.442751 0.628631 2.680218
0.450505 0.627059 2.673516
0.458218 0.625492 2.666837
0.465886 0.623924 2.660151
0.473504 0.622350 2.653438
0.480803 0.620419 2.645208
0.488269 0.618771 2.638181
0.495602 0.617015 2.630694
0.502542 0.614838 2.621412
0.509919 0.613261 2.614690
0.516864 0.611226 2.606013
0.524134 0.609637 2.599237
0.531362 0.608050 2.592470
0.538955 0.606925 2.587674
0.547002 0.606338 2.585172
0.554733 0.605425 2.581277
0.562062 0.604108 2.575661
0.569403 0.602841 2.570263
0.578090 0.603017 2.571014
0.579999 0.596220 2.542032
0.582981 0.590705 2.518519
0.588526 0.587906 2.506585
0.595091 0.586190 2.499269
0.602294 0.585140 2.494793
0.611123 0.585677 2.497081
0.624501 0.590501 2.517650
0.632337 0.590027 2.515630
0.639597 0.589035 2.511400
0.647380 0.588544 2.509306
0.653985 0.587007 2.502753
0.661990 0.586751 2.501660
0.671045 0.587419 2.504509
0.680046 0.588025 2.507092
0.689126 0.588683 2.509900
0.698262 0.589374 2.512842
0.706788 0.589539 2.513547
0.715905 0.590187 2.516310
0.725072 0.590861 2.519184
0.734211 0.591497 2.521896
0.743410 0.592167 2.524752
0.753209 0.593295 2.529560
0.762563 0.594050 2.532782
0.772397 0.595160 2.537513
0.781726 0.595860 2.540497
0.791247 0.596690 2.544038
0.801025 0.597695 2.548322
0.811037 0.598851 2.553252
0.820574 0.599637 2.556600
0.831297 0.601264 2.563540
0.840896 0.602053 2.566904
0.851638 0.603637 2.573657
0.861475 0.604555 2.577570
0.872336 0.606166 2.584436
0.883320 0.607830 2.591533
0.893722 0.609066 2.596802
0.904230 0.610349 2.602272
0.915547 0.612149 2.609949
0.926134 0.613432 2.615418
0.936577 0.614597 2.620382
0.947888 0.616305 2.627665
0.959107 0.617922 2.634560
0.970064 0.619342 2.640616
0.981551 0.621073 2.647995
0.992311 0.622317 2.653300
1.003860 0.624030 2.660602
1.014635 0.625236 2.665745
1.025287 0.626346 2.670478
1.036155 0.627568 2.675688
1.051929 0.631716 2.693370
1.012208 0.602747 2.569860
0.920768 0.543721 2.318199
0.920008 0.538776 2.297117
0.919115 0.533836 2.276054
0.921056 0.530609 2.262294
0.923960 0.527984 2.251101
0.928063 0.526080 2.242986
0.932439 0.524361 2.235654
0.937387 0.522987 2.229799
0.942721 0.521849 2.224946
0.947177 0.520246 2.218111
0.951509 0.518600 2.211095
0.955242 0.516656 2.202806
0.959190 0.514856 2.195132
0.963491 0.513272 2.188377
0.969589 0.512661 2.185773
0.975801 0.512120 2.183464
0.988611 0.515023 2.195842
1.013788 0.524280 2.235310
1.058345 0.543352 2.316625
1.102236 0.561809 2.395320
1.111619 0.562540 2.398437
1.111884 0.558679 2.381975
1.142480 0.570006 2.430266
0.915863 0.453743 1.934572
0.749561 0.368771 1.572285
0.752210 0.367519 1.566949
0.753949 0.365843 1.559801
0.756424 0.364545 1.554265
0.759171 0.363394 1.549359
0.761787 0.362196 1.544253
0.764516 0.361068 1.539441
0.767111 0.359892 1.534427
0.769655 0.358707 1.529376
0.771572 0.357248 1.523155
0.774020 0.356052 1.518055
0.777233 0.355221 1.514512
0.780567 0.354455 1.511249
0.784485 0.353963 1.509151
0.786888 0.352798 1.504183
-1.447813 0.644804 2.710660
-1.440514 0.645559 2.713834
-1.430630 0.645157 2.712147
-1.420770 0.644762 2.710485
-1.410915 0.644364 2.708812
-1.401155 0.644004 2.707301
-1.392335 0.644075 2.707597
-1.382490 0.643669 2.705892
-1.374102 0.643941 2.707035
-1.366936 0.644793 2.710616
-1.359741 0.645642 2.714186
-1.349030 0.644822 2.710739
-1.335503 0.642636 2.701549
-1.324922 0.641848 2.698236
-1.317034 0.642363 2.700398
-1.445725 0.709954 2.984543
-1.592759 0.787546 3.310730
-1.474024 0.733893 3.085181
-1.429952 0.716924 3.013844
-1.539008 0.777028 3.266512
-1.602075 0.814600 3.424461
-1.601009 0.819866 3.446599
-1.597194 0.823790 3.463095
-1.590393 0.826220 3.473307
-1.582850 0.828297 3.482038
-1.574964 0.830223 3.490136
-1.567670 0.832492 3.499675
-1.560863 0.835056 3.510453
-1.552275 0.836698 3.517355
-1.544357 0.838729 3.525893
-1.536581 0.840868 3.534888
-1.528120 0.842663 3.542432
-1.520521 0.844964 3.552107
-1.512402 0.847011 3.560709
-1.504705 0.849327 3.570448
-1.500546 0.853694 3.588803
-1.484682 0.851417 3.579232
-1.198478 0.692824 2.912530
-1.179532 0.687408 2.889762
-1.169829 0.687334 2.889453
-1.162010 0.688375 2.893829
-1.154972 0.689900 2.900241
-1.147543 0.691215 2.905767
-1.139831 0.692380 2.910666
-1.250417 0.766038 3.220314
-1.394189 0.861470 3.621495
-1.383842 0.862502 3.625833
-1.372203 0.862740 3.626832
-1.361602 0.863640 3.630617
-1.349131 0.863359 3.629436
-1.337869 0.863855 3.631519
-1.326327 0.864176 3.632872
-1.316320 0.865513 3.638491
-1.306534 0.867022 3.644833
-1.293170 0.866161 3.641216
-1.288952 0.871469 3.663529
-1.119842 0.764333 3.213144
-1.102958 0.760036 3.195081
-1.185888 0.825104 3.468616
-1.230161 0.864286 3.633333
-1.220179 0.865748 3.639477
-1.206066 0.864278 3.633300
-1.192722 0.863336 3.629338
-1.180419 0.863135 3.628493
-1.169428 0.863899 3.631706
-1.156432 0.863183 3.628697
-1.145209 0.863789 3.631242
-1.133106 0.863737 3.631025
-1.120945 0.863640 3.630616
-1.108016 0.862942 3.627681
-1.096717 0.863512 3.630078
-1.085490 0.864152 3.632768
-1.072605 0.863471 3.629908
-1.061039 0.863849 3.631497
-0.837300 0.689513 2.898612
-0.800379 0.666758 2.802955
-0.792091 0.667603 2.806505
-0.794650 0.677718 2.849028
-0.989890 0.854381 3.591694
-0.978366 0.854713 3.593088
-0.967345 0.855498 3.596390
-0.956198 0.856190 3.599297
-0.944854 0.856720 3.601524
-0.932686 0.856508 3.600633
-0.920735 0.856491 3.600563
-0.908587 0.856289 3.599713
-0.896449 0.856090 3.598879
-0.885154 0.856703 3.601454
-0.872798 0.856291 3.599722
-0.860613 0.856038 3.598659
-0.847847 0.855191 3.595100
-0.836510 0.855783 3.597588
-0.824133 0.855312 3.595606
-0.812174 0.855267 3.595420
-0.801253 0.856331 3.599890
-0.794409 0.861850 3.623090
-0.730480 0.804656 3.382657
-0.712638 0.797238 3.351473
-0.746128 0.847920 3.564533
-0.747241 0.862847 3.627282
-0.735318 0.862962 3.627768
-0.727537 0.868025 3.649050
-0.641908 0.778806 3.273988
-0.603743 0.745098 3.132283
-0.596835 0.749459 3.150618
-0.658427 0.841525 3.537647
-0.659903 0.858702 3.609857
-0.646021 0.856160 3.599172
-0.634558 0.856789 3.601815
-0.622614 0.856779 3.601775
-0.610118 0.855996 3.598484
-0.598186 0.855988 3.598448
-0.586461 0.856281 3.599682
-0.574252 0.855866 3.597937
-0.562130 0.855566 3.596674
-0.550429 0.855907 3.598107
-0.538421 0.855775 3.597553
-0.526064 0.855070 3.594591
-0.514338 0.855381 3.595896
-0.502357 0.855274 3.595447
-0.489996 0.854498 3.592184
-0.478247 0.854778 3.593362
-0.466248 0.854613 3.592668
-0.454308 0.854551 3.592409
-0.442569 0.854876 3.593772
-0.430616 0.854791 3.593417
-0.418705 0.854788 3.593405
-0.406938 0.855087 3.594659
-0.395157 0.855375 3.595873
-0.383329 0.855574 3.596708
-0.371256 0.855224 3.595238
-0.359341 0.855224 3.595237
-0.347241 0.854770 3.593327
-0.335427 0.855013 3.594349
-0.323604 0.855251 3.595352
-0.311257 0.854067 3.590371
-0.299002 0.853052 3.586108
-0.286891 0.852384 3.583298
-0.275004 0.852348 3.583145
-0.263675 0.854118 3.590588
-0.252126 0.855309 3.595596
-0.240164 0.855148 3.594919
-0.228438 0.855854 3.597887
-0.216411 0.855451 3.596193
-0.204492 0.855451 3.596190
-0.192576 0.855459 3.596226
-0.180508 0.854754 3.593261
-0.168506 0.854281 3.591273
-0.156603 0.854279 3.591265
-0.144699 0.854270 3.591228
-0.132712 0.853727 3.588945
-0.120799 0.853597 3.588395
-0.108826 0.852967 3.585751
-0.096956 0.853093 3.586279
-0.085070 0.853091 3.586270
-0.073245 0.853802 3.589260
-0.061355 0.853884 3.589602
-0.049460 0.853914 3.589730
-0.037564 0.853935 3.589820
-0.025645 0.853250 3.586938
-0.013768 0.853949 3.589878
-0.001871 0.853946 3.589864
0.010027 0.853932 3.589804
0.021924 0.853908 3.589705
0.033821 0.853913 3.589726
0.045759 0.854668 3.592902
0.057664 0.854618 3.592690
0.069566 0.854559 3.592440
0.081478 0.854619 3.592694
0.093377 0.854542 3.592369
0.105272 0.854455 3.592006
0.117164 0.854360 3.591604
0.129052 0.854256 3.591168
0.140935 0.854143 3.590692
0.152814 0.854020 3.590177
0.164823 0.854595 3.592595
0.176736 0.854625 3.592717
0.188764 0.855169 3.595007
0.200665 0.855112 3.594767
0.212721 0.855682 3.597163
0.224808 0.856312 3.599812
0.236688 0.856127 3.599035
0.248597 0.856061 3.598758
0.260463 0.855860 3.597911
0.272308 0.855610 3.596859
0.284082 0.855169 3.595007
0.296380 0.856276 3.599662
0.308962 0.858086 3.607270
0.318881 0.852642 3.584382
0.323597 0.834174 3.506744
0.306063 0.761620 3.201741
0.283845 0.682663 2.869814
0.291788 0.679013 2.854472
0.299603 0.675305 2.838884
0.307920 0.672918 2.828850
0.316701 0.671658 2.823552
0.325104 0.669692 2.815287
0.333473 0.667765 2.807188
0.341327 0.664941 2.795316
0.349075 0.662065 2.783223
0.356950 0.659572 2.772745
0.365213 0.657902 2.765722
0.373235 0.655892 2.757273
0.380791 0.653178 2.745864
0.388543 0.650919 2.736368
0.396254 0.648694 2.727017
0.404101 0.646789 2.719006
0.411728 0.644621 2.709893
0.419445 0.642683 2.701745
0.427338 0.641092 2.695056
0.435165 0.639467 2.688227
0.442839 0.637688 2.680747
0.450595 0.636095 2.674050
0.458139 0.634269 2.666374
0.465810 0.632686 2.659718
0.473163 0.630736 2.651523
0.480683 0.629077 2.644548
0.487917 0.627111 2.636281
0.495246 0.625331 2.628802
0.502544 0.623576 2.621423
0.509553 0.621528 2.612814
0.516493 0.619466 2.604146
0.523820 0.617928 2.597681
0.531392 0.616724 2.592617
0.538993 0.615591 2.587856
0.546681 0.614592 2.583656
0.554338 0.613589 2.579439
0.561515 0.612094 2.573155
0.568999 0.610972 2.568438
0.577680 0.611151 2.569191
0.578672 0.603308 2.536218
0.582078 0.598170 2.514618
0.588054 0.595781 2.504577
0.594715 0.594142 2.497687
0.602545 0.593701 2.495831
0.611979 0.594830 2.500580
0.625401 0.599754 2.521281
0.633532 0.599541 2.520383
0.638915 0.596767 2.508723
0.645964 0.595600 2.503816
0.653629 0.595024 2.501394
0.661418 0.594573 2.499497
0.669822 0.594680 2.499948
0.679008 0.595470 2.503267
0.687946 0.596025 2.505602
0.697060 0.596718 2.508515
0.705607 0.596916 2.509347
0.714602 0.597483 2.511731
0.723753 0.598166 2.514602
0.732889 0.598821 2.517357
0.742171 0.599580 2.520545
0.751409 0.600286 2.523513
0.761179 0.601397 2.528186
0.770566 0.602184 2.531496
0.779780 0.602822 2.534174
0.789687 0.603975 2.539022
0.799600 0.605109 2.543789
0.809145 0.605943 2.547295
0.819089 0.607056 2.551975
0.829279 0.608327 2.557316
0.839538 0.609621 2.562759
0.849684 0.610809 2.567752
0.860667 0.612569 2.575152
0.870784 0.613684 2.579839
0.881319 0.615069 2.585662
0.892391 0.616799 2.592933
0.903383 0.618441 2.599834
0.913788 0.619654 2.604935
0.924473 0.621032 2.610728
0.935865 0.622855 2.618390
0.946426 0.624097 2.623611
0.957056 0.625361 2.628925
0.968535 0.627152 2.636456
0.979949 0.628869 2.643675
0.991573 0.630690 2.651327
1.003203 0.632482 2.658863
1.013904 0.633663 2.663825
1.024694 0.634877 2.668932
1.037195 0.637123 2.678372
1.051253 0.640278 2.691637
1.061372 0.641002 2.694680
0.938168 0.561867 2.362007
0.923079 0.548255 2.304786
0.920946 0.542499 2.280588
0.921630 0.538483 2.263702
0.923289 0.535096 2.249465
0.926124 0.532440 2.238298
0.930336 0.530611 2.230612
0.934814 0.528962 2.223679
0.938442 0.526861 2.214847
0.943368 0.525516 2.209191
0.947975 0.524015 2.202884
0.951424 0.521902 2.194000
0.955366 0.520090 2.186382
0.959816 0.518579 2.180031
0.964739 0.517344 2.174840
0.969194 0.515879 2.168680
0.973387 0.514297 2.162029
0.978105 0.513013 2.156633
0.982525 0.511593 2.150661
0.989782 0.511660 2.150943
1.003704 0.515146 2.165600
1.028336 0.524041 2.202992
1.079765 0.546370 2.296859
0.866771 0.435523 1.830875
0.750065 0.374262 1.573342
0.752287 0.372779 1.567109
0.754228 0.371178 1.560380
0.756725 0.369871 1.554884
0.759458 0.368696 1.549943
0.762076 0.367481 1.544838
0.764688 0.366280 1.539788
0.767404 0.365144 1.535013
0.769358 0.363663 1.528786
0.771820 0.362440 1.523644
0.774316 0.361248 1.518635
0.777526 0.360403 1.515082
0.780864 0.359628 1.511823
0.784786 0.359130 1.509730
0.787840 0.358243 1.506002
-1.447805 0.653833 2.710645
