ply
format ascii 1.0
comment generated by convert_depth_to_ply.py
element vertex 1740
property float x
property float y
property float z
end_header
0.120906 0.096092 0.650470
0.123048 0.096096 0.650494
0.125355 0.096226 0.651377
0.127577 0.096287 0.651790
0.129856 0.096389 0.652478
0.132206 0.096539 0.653495
0.134526 0.096663 0.654337
0.137066 0.096938 0.656200
0.139786 0.097331 0.658858
0.142567 0.097753 0.661713
0.145992 0.098597 0.667430
0.166316 0.110661 0.749089
0.180950 0.118642 0.803117
0.184347 0.119131 0.806429
0.186865 0.119047 0.805860
0.189176 0.118835 0.804424
0.191654 0.118733 0.803731
0.193778 0.118417 0.801592
0.195886 0.118099 0.799444
0.198338 0.117995 0.798737
0.200638 0.117804 0.797445
0.202892 0.117592 0.796006
0.205337 0.117494 0.795346
0.207998 0.117521 0.795527
0.210489 0.117452 0.795059
0.213068 0.117433 0.794932
0.215495 0.117332 0.794250
0.217921 0.117233 0.793578
0.220336 0.117131 0.792886
0.222979 0.117150 0.793017
0.225601 0.117158 0.793073
0.228108 0.117107 0.792729
0.230745 0.117124 0.792839
0.233366 0.117131 0.792891
0.236231 0.117260 0.793763
0.239224 0.117448 0.795037
0.242191 0.117621 0.796205
0.245453 0.117931 0.798304
0.248422 0.118095 0.799413
0.251722 0.118412 0.801557
0.255116 0.118765 0.803951
0.258736 0.119216 0.807000
0.262683 0.119806 0.811000
0.266676 0.120406 0.815057
0.270725 0.121019 0.819205
0.273310 0.120971 0.818884
0.274142 0.120156 0.813369
0.274109 0.118982 0.805417
0.274809 0.118145 0.799751
0.275797 0.117446 0.795023
-0.192929 0.082574 0.546409
-0.191522 0.082742 0.547521
-0.189340 0.082575 0.546415
-0.187368 0.082497 0.545901
-0.185387 0.082414 0.545350
-0.183418 0.082335 0.544826
-0.181442 0.082251 0.544270
-0.179477 0.082170 0.543735
-0.177544 0.082102 0.543287
-0.175586 0.082022 0.542756
-0.173756 0.082000 0.542612
-0.171894 0.081963 0.542362
-0.170049 0.081932 0.542162
-0.168089 0.081846 0.541588
-0.166248 0.081816 0.541389
-0.164446 0.081804 0.541312
-0.162559 0.081750 0.540952
-0.160854 0.081787 0.541199
-0.159057 0.081777 0.541135
-0.157335 0.081807 0.541330
-0.155551 0.081804 0.541312
-0.153742 0.081788 0.541207
-0.151955 0.081784 0.541178
-0.150146 0.081767 0.541066
-0.148396 0.081783 0.541170
-0.146546 0.081743 0.540906
-0.144787 0.081753 0.540974
-0.142944 0.081716 0.540726
-0.141148 0.081705 0.540657
-0.139358 0.081697 0.540605
-0.137665 0.081747 0.540934
-0.135993 0.081810 0.541353
-0.134195 0.081799 0.541278
-0.132516 0.081860 0.541685
-0.130833 0.081921 0.542088
-0.129008 0.081894 0.541905
-0.127318 0.081952 0.542291
-0.125626 0.082011 0.542680
-0.123939 0.082075 0.543105
-0.122230 0.082126 0.543441
-0.120638 0.082258 0.544316
-0.118820 0.082238 0.544182
-0.117110 0.082293 0.544545
-0.115374 0.082331 0.544800
-0.113577 0.082326 0.544768
-0.111740 0.082292 0.544541
-0.109990 0.082322 0.544739
-0.108199 0.082321 0.544733
-0.106360 0.082283 0.544482
-0.104633 0.082332 0.544809
-0.102904 0.082381 0.545131
-0.101171 0.082429 0.545448
-0.099435 0.082476 0.545759
-0.097696 0.082522 0.546066
-0.095954 0.082567 0.546361
-0.094209 0.082612 0.546657
-0.092462 0.082656 0.546947
-0.090712 0.082699 0.547232
-0.088959 0.082741 0.547512
-0.087203 0.082782 0.547786
-0.085507 0.082883 0.548454
-0.083847 0.083024 0.549387
-0.082080 0.083063 0.549646
-0.080451 0.083247 0.550862
-0.078692 0.083302 0.551222
-0.076915 0.083338 0.551464
-0.075134 0.083373 0.551694
-0.073429 0.083496 0.552509
-0.071701 0.083599 0.553187
-0.069917 0.083639 0.553454
-0.068196 0.083759 0.554250
-0.066459 0.083866 0.554957
-0.064661 0.083899 0.555176
-0.062980 0.084091 0.556444
-0.061242 0.084215 0.557266
-0.059486 0.084322 0.557977
-0.057732 0.084439 0.558749
-0.055967 0.084546 0.559455
-0.054241 0.084722 0.560621
-0.052414 0.084747 0.560786
-0.050650 0.084879 0.561663
-0.048850 0.084960 0.562194
-0.047077 0.085095 0.563087
-0.045282 0.085199 0.563778
-0.043570 0.085474 0.565596
-0.041776 0.085608 0.566482
-0.039971 0.085728 0.567280
-0.038207 0.085954 0.568775
-0.036417 0.086142 0.570016
-0.034634 0.086368 0.571511
-0.032844 0.086599 0.573043
-0.031073 0.086914 0.575127
-0.029247 0.087102 0.576372
-0.027465 0.087460 0.578742
-0.025668 0.087819 0.581115
-0.023855 0.088178 0.583493
-0.022027 0.088538 0.585873
-0.020184 0.088898 0.588257
-0.018324 0.089259 0.590644
-0.016450 0.089620 0.593034
-0.014559 0.089982 0.595428
-0.012664 0.090424 0.598354
-0.010743 0.090803 0.600859
-0.008828 0.091418 0.604929
-0.006888 0.092068 0.609232
-0.004976 0.093757 0.620407
-0.003494 0.111547 0.738125
-0.001139 0.118917 0.786897
0.001461 0.120085 0.794626
0.004089 0.120573 0.797854
0.006757 0.121396 0.803301
0.009442 0.121981 0.807172
0.012146 0.122493 0.810558
0.014892 0.123175 0.815071
0.017646 0.123702 0.818562
0.020507 0.124742 0.825442
0.023463 0.126051 0.834103
0.026241 0.126230 0.835286
0.028953 0.126083 0.834315
0.031597 0.125697 0.831759
0.034180 0.125143 0.828092
0.036734 0.124576 0.824339
0.039220 0.123872 0.819684
0.041696 0.123230 0.815433
0.044192 0.122719 0.812053
0.046666 0.122209 0.808678
0.049118 0.121700 0.805310
0.051549 0.121192 0.801947
0.053957 0.120684 0.798588
0.056234 0.119943 0.793684
0.058119 0.118469 0.783928
0.054409 0.106198 0.702733
0.055200 0.103355 0.683917
0.056965 0.102487 0.678176
0.058811 0.101824 0.673787
0.060765 0.101390 0.670915
0.062701 0.100957 0.668048
0.064618 0.100524 0.665187
0.066517 0.100093 0.662330
0.068520 0.099838 0.660649
0.070527 0.099607 0.659121
0.072388 0.099190 0.656357
0.074433 0.099041 0.655370
0.076487 0.098912 0.654516
0.078607 0.098872 0.654256
0.080651 0.098743 0.653398
0.082837 0.098789 0.653706
0.084937 0.098733 0.653332
0.086888 0.098510 0.651856
0.088989 0.098465 0.651559
0.091088 0.098419 0.651255
0.093002 0.098180 0.649675
0.095091 0.098132 0.649359
0.097176 0.098083 0.649036
0.099065 0.097842 0.647441
0.101142 0.097793 0.647114
0.103291 0.097814 0.647254
0.105489 0.097880 0.647689
0.107650 0.097910 0.647887
0.109839 0.097963 0.648239
0.112125 0.098099 0.649137
0.114310 0.098143 0.649431
0.116484 0.098177 0.649657
0.118780 0.098311 0.650539
0.120845 0.098251 0.650145
0.123058 0.098312 0.650549
0.125369 0.098448 0.651448
0.127513 0.098451 0.651465
0.129825 0.098580 0.652322
0.132140 0.098708 0.653170
0.134570 0.098916 0.654546
0.136998 0.099117 0.655874
0.139837 0.099604 0.659095
0.142515 0.099963 0.661472
0.145937 0.100825 0.667180
0.166659 0.113437 0.750634
0.181224 0.121552 0.804334
0.184432 0.121925 0.806801
0.187143 0.121964 0.807057
0.189453 0.121744 0.805601
0.191580 0.121414 0.803421
0.193903 0.121216 0.802107
0.196173 0.120990 0.800615
0.198447 0.120773 0.799177
0.200725 0.120564 0.797792
0.203190 0.120470 0.797175
0.205639 0.120371 0.796515
0.208089 0.120274 0.795874
0.210527 0.120173 0.795204
0.213034 0.120112 0.794805
0.215619 0.120097 0.794706
0.218046 0.119996 0.794034
0.220661 0.119999 0.794054
0.223077 0.119895 0.793367
0.225822 0.119968 0.793849
0.228333 0.119917 0.793511
0.230864 0.119877 0.793245
0.233583 0.119934 0.793628
0.236351 0.120015 0.794164
0.239451 0.120262 0.795795
0.242454 0.120454 0.797067
0.245430 0.120630 0.798228
0.248705 0.120947 0.800326
0.251938 0.121236 0.802243
0.255495 0.121675 0.805144
0.258918 0.122041 0.807569
0.262810 0.122619 0.811391
0.267078 0.123358 0.816285
0.271579 0.124190 0.821790
0.274187 0.124148 0.821512
0.275094 0.123345 0.816193
0.275606 0.122380 0.809814
0.276850 0.121757 0.805690
0.278628 0.121378 0.803183
-0.193214 0.084554 0.547216
-0.191605 0.084638 0.547757
-0.189609 0.084550 0.547193
-0.187629 0.084468 0.546661
-0.185496 0.084315 0.545673
-0.183525 0.084234 0.545145
-0.181547 0.084147 0.544585
-0.179580 0.084064 0.544047
-0.177727 0.084033 0.543847
-0.175807 0.083970 0.543438
-0.173883 0.083903 0.543007
-0.171919 0.083816 0.542439
-0.170089 0.083793 0.542290
-0.168215 0.083747 0.541995
-0.166388 0.083724 0.541845
-0.164532 0.083686 0.541596
-0.162734 0.083676 0.541536
-0.160937 0.083667 0.541477
-0.159209 0.083694 0.541653
-0.157338 0.083646 0.541339
-0.155615 0.083676 0.541537
-0.153889 0.083705 0.541722
-0.152018 0.083656 0.541402
-0.150281 0.083679 0.541554
-0.148466 0.083659 0.541425
-0.146761 0.083702 0.541700
-0.144968 0.083694 0.541653
-0.143153 0.083674 0.541520
-0.141384 0.083680 0.541561
-0.139687 0.083729 0.541880
-0.137867 0.083706 0.541726
-0.136088 0.083706 0.541731
-0.134395 0.083761 0.542083
-0.132570 0.083733 0.541905
-0.130886 0.083795 0.542307
-0.129195 0.083855 0.542690
-0.127504 0.083915 0.543083
-0.125809 0.083975 0.543472
-0.124110 0.084035 0.543855
-0.122408 0.084093 0.544234
-0.120703 0.084151 0.544608
-0.118889 0.084134 0.544499
-0.117178 0.084190 0.544863
-0.115338 0.084155 0.544632
-0.113622 0.084209 0.544985
-0.111876 0.084243 0.545205
-0.110048 0.084215 0.545025
-0.108242 0.084203 0.544948
-0.106514 0.084254 0.545272
-0.104729 0.084259 0.545305
-0.103053 0.084354 0.545922
-0.101318 0.084403 0.546239
-0.099493 0.084377 0.546074
-0.097753 0.084425 0.546380
-0.095905 0.084379 0.546085
-0.094263 0.084516 0.546971
-0.092515 0.084561 0.547261
-0.090764 0.084605 0.547546
-0.089010 0.084648 0.547826
-0.087329 0.084764 0.548578
-0.085568 0.084806 0.548847
-0.083804 0.084846 0.549108
-0.082180 0.085033 0.550318
-0.080427 0.085091 0.550693
-0.078720 0.085203 0.551418
-0.077014 0.085321 0.552178
-0.075242 0.085369 0.552490
-0.073457 0.085405 0.552722
-0.071670 0.085439 0.552947
-0.070014 0.085637 0.554224
-0.068294 0.085764 0.555045
-0.066555 0.085873 0.555756
-0.064752 0.085905 0.555961
-0.063071 0.086104 0.557246
-0.061266 0.086141 0.557488
-0.059565 0.086331 0.558716
-0.057756 0.086371 0.558977
-0.056037 0.086554 0.560162
-0.054224 0.086599 0.560450
-0.052489 0.086775 0.561592
-0.050672 0.086823 0.561903
-0.048921 0.086993 0.563002
-0.047098 0.087044 0.563333
-0.045348 0.087239 0.564592
-0.043589 0.087433 0.565849
-0.041804 0.087590 0.566863
-0.040008 0.087736 0.567807
-0.038225 0.087927 0.569049
-0.036434 0.088119 0.570287
-0.034650 0.088348 0.571770
-0.032875 0.088628 0.573582
-0.031057 0.088821 0.574829
-0.029263 0.089109 0.576696
-0.027480 0.089475 0.579067
-0.025705 0.089921 0.581949
-0.023875 0.090236 0.583988
-0.022053 0.090633 0.586559
-0.020213 0.091026 0.589101
-0.018351 0.091395 0.591491
-0.016473 0.091765 0.593885
-0.014580 0.092135 0.596282
-0.012683 0.092590 0.599225
-0.010778 0.093146 0.602825
-0.008866 0.093880 0.607570
-0.006924 0.094629 0.612417
-0.004978 0.095911 0.620715
-0.003632 0.118567 0.767345
-0.001132 0.120814 0.781885
0.001453 0.122110 0.790274
0.004071 0.122734 0.794311
0.006733 0.123683 0.800453
0.009400 0.124168 0.803588
0.012092 0.124688 0.806959
0.014826 0.125383 0.811452
0.017560 0.125870 0.814603
0.020343 0.126525 0.818844
0.023247 0.127694 0.826412
0.026219 0.128955 0.834571
0.029034 0.129277 0.836652
0.031707 0.128968 0.834655
0.034320 0.128479 0.831488
0.036827 0.127697 0.826428
0.039336 0.127029 0.822106
0.041801 0.126315 0.817487
0.044304 0.125792 0.814098
0.046733 0.125134 0.809839
0.049166 0.124554 0.806087
0.051578 0.123984 0.802399
0.054007 0.123508 0.799321
0.056296 0.122773 0.794563
0.058520 0.121965 0.789336
0.055438 0.110638 0.716030
0.055246 0.105765 0.684488
0.056949 0.104760 0.677988
0.058829 0.104143 0.673996
0.060734 0.103614 0.670570
0.062668 0.103171 0.667705
0.064585 0.102729 0.664845
0.066483 0.102288 0.661990
0.068490 0.102037 0.660365
0.070420 0.101690 0.658120
0.072351 0.101366 0.656021
0.074409 0.101232 0.655153
0.076448 0.101082 0.654181
0.078567 0.101042 0.653921
0.080617 0.100918 0.653121
0.082795 0.100957 0.653372
0.084740 0.100716 0.651813
0.086843 0.100671 0.651524
0.088944 0.100625 0.651227
0.091042 0.100578 0.650924
0.092955 0.100334 0.649344
0.095042 0.100286 0.649029
0.097127 0.100236 0.648707
0.099015 0.099990 0.647113
0.101091 0.099939 0.646787
0.103295 0.100015 0.647277
0.105436 0.100028 0.647362
0.107596 0.100059 0.647560
0.109784 0.100113 0.647912
0.112068 0.100252 0.648810
0.114252 0.100297 0.649104
0.116426 0.100332 0.649331
0.118721 0.100469 0.650212
0.120784 0.100408 0.649819
0.123085 0.100542 0.650689
0.125306 0.100609 0.651123
0.127621 0.100747 0.652017
0.129760 0.100744 0.651997
0.132181 0.100957 0.653370
0.134596 0.101158 0.654675
0.136930 0.101293 0.655549
0.139767 0.101791 0.658768
0.142444 0.102158 0.661144
0.145880 0.103050 0.666918
0.164449 0.114448 0.740683
0.181469 0.124450 0.805417
0.184701 0.124846 0.807980
0.187219 0.124754 0.807386
0.189725 0.124658 0.806762
0.191852 0.124318 0.804559
0.193982 0.123989 0.802433
0.196442 0.123878 0.801712
0.198557 0.123554 0.799620
0.201020 0.123453 0.798962
0.203345 0.123271 0.797783
0.205761 0.123148 0.796989
0.208395 0.123156 0.797044
0.210837 0.123053 0.796373
0.213278 0.122951 0.795716
0.215708 0.122846 0.795035
0.218222 0.122790 0.794675
0.220793 0.122768 0.794531
0.223406 0.122769 0.794536
0.225826 0.122665 0.793863
0.228471 0.122684 0.793989
0.231082 0.122685 0.793995
0.233833 0.122760 0.794475
0.236703 0.122894 0.795347
0.239571 0.123025 0.796191
0.242682 0.123276 0.797818
0.245701 0.123475 0.799108
0.248676 0.123649 0.800233
0.251977 0.123979 0.802368
0.255374 0.124350 0.804766
0.259178 0.124908 0.808381
0.263140 0.125531 0.812410
0.267436 0.126299 0.817380
0.271990 0.127172 0.823032
0.275139 0.127378 0.824363
0.276049 0.126553 0.819027
0.277087 0.125802 0.814166
0.278362 0.125172 0.810090
0.280155 0.124785 0.807584
-0.193124 0.086371 0.546960
-0.191527 0.086462 0.547534
-0.189542 0.086377 0.546999
-0.187572 0.086298 0.546497
-0.185574 0.086204 0.545903
-0.183626 0.086132 0.545446
-0.181591 0.086017 0.544715
-0.179690 0.085964 0.544379
-0.177686 0.085860 0.543724
-0.175762 0.085793 0.543298
-0.173936 0.085773 0.543171
-0.172065 0.085730 0.542902
-0.170168 0.085674 0.542543
-0.168256 0.085608 0.542124
-0.166417 0.085578 0.541940
-0.164611 0.085566 0.541858
-0.162719 0.085507 0.541486
-0.161082 0.085583 0.541967
-0.159217 0.085537 0.541679
-0.157489 0.085566 0.541861
-0.155768 0.085599 0.542067
-0.153892 0.085546 0.541736
-0.152240 0.085618 0.542192
-0.150350 0.085557 0.541801
-0.148631 0.085592 0.542027
-0.146975 0.085665 0.542489
-0.145065 0.085590 0.542014
-0.143362 0.085637 0.542308
-0.141568 0.085630 0.542264
-0.139767 0.085618 0.542189
-0.138067 0.085669 0.542513
-0.136274 0.085663 0.542472
-0.134444 0.085633 0.542283
-0.132762 0.085697 0.542691
-0.131076 0.085761 0.543093
-0.129382 0.085821 0.543477
-0.127580 0.085810 0.543409
-0.125884 0.085872 0.543797
-0.124185 0.085932 0.544180
-0.122481 0.085992 0.544559
-0.120757 0.086039 0.544855
-0.118932 0.086014 0.544697
-0.117220 0.086071 0.545060
-0.115505 0.086128 0.545418
-0.113659 0.086088 0.545164
-0.111845 0.086070 0.545054
-0.110123 0.086124 0.545396
-0.108186 0.086009 0.544668
-0.106460 0.086060 0.544992
-0.104731 0.086112 0.545319
-0.103000 0.086163 0.545641
-0.101266 0.086213 0.545957
-0.099528 0.086262 0.546269
-0.097788 0.086310 0.546575
-0.096001 0.086319 0.546628
-0.094297 0.086404 0.547165
-0.092548 0.086449 0.547455
-0.090796 0.086494 0.547740
-0.089041 0.086538 0.548019
-0.087284 0.086582 0.548293
-0.085639 0.086741 0.549300
-0.083924 0.086835 0.549895
-0.082156 0.086875 0.550153
-0.080453 0.086990 0.550876
-0.078765 0.087124 0.551730
-0.076986 0.087163 0.551972
-0.075203 0.087199 0.552201
-0.073500 0.087332 0.553043
-0.071767 0.087435 0.553697
-0.070054 0.087568 0.554538
-0.068320 0.087681 0.555256
-0.066593 0.087811 0.556078
-0.064845 0.087918 0.556755
-0.063041 0.087954 0.556986
-0.061348 0.088152 0.558234
-0.059541 0.088192 0.558489
-0.057829 0.088382 0.559691
-0.056018 0.088426 0.559969
-0.054290 0.088609 0.561131
-0.052474 0.088657 0.561433
-0.050730 0.088833 0.562551
-0.048960 0.088977 0.563459
-0.047165 0.089084 0.564140
-0.045396 0.089250 0.565193
-0.043634 0.089446 0.566433
-0.041814 0.089535 0.566995
-0.040066 0.089792 0.568624
-0.038257 0.089933 0.569518
-0.036451 0.090095 0.570545
-0.034666 0.090330 0.572028
-0.032875 0.090574 0.573575
-0.031087 0.090858 0.575374
-0.029286 0.091139 0.577156
-0.027520 0.091574 0.579905
-0.025733 0.091999 0.582601
-0.023903 0.092325 0.584665
-0.022090 0.092780 0.587548
-0.020241 0.093158 0.589938
-0.018377 0.093536 0.592332
-0.016497 0.093914 0.594729
-0.014601 0.094294 0.597130
-0.012703 0.094778 0.600196
-0.010813 0.095506 0.604807
-0.008896 0.096269 0.609638
-0.006956 0.097144 0.615182
-0.004993 0.098311 0.622569
-0.003656 0.121965 0.772362
-0.001127 0.122918 0.778398
0.001444 0.123996 0.785225
0.004053 0.124872 0.790774
0.006696 0.125712 0.796090
0.009360 0.126347 0.800115
0.012058 0.127072 0.804704
0.014778 0.127727 0.808851
0.017516 0.128313 0.812562
0.020248 0.128700 0.815017
0.023021 0.129230 0.818372
0.025978 0.130580 0.826918
0.029000 0.131962 0.835674
0.031804 0.132201 0.837186
0.034455 0.131821 0.834777
0.036972 0.131015 0.829677
0.039455 0.130214 0.824599
0.041907 0.129415 0.819543
0.044368 0.128741 0.815277
0.046825 0.128134 0.811431
0.049236 0.127473 0.807246
0.051652 0.126891 0.803562
0.054006 0.126221 0.799313
0.056285 0.125445 0.794404
0.058765 0.125167 0.792639
0.056770 0.115786 0.733232
0.055294 0.108182 0.685084
0.057018 0.107191 0.678802
0.058826 0.106427 0.673964
0.060702 0.105835 0.670216
0.062635 0.105383 0.667353
0.064551 0.104931 0.664495
0.066448 0.104481 0.661642
0.068448 0.104216 0.659962
0.070326 0.103785 0.657239
0.072313 0.103539 0.655676
0.074290 0.103291 0.654110
0.076408 0.103248 0.653838
0.078522 0.103202 0.653546
0.080483 0.102963 0.652033
0.082654 0.102998 0.652254
0.084695 0.102875 0.651472
0.086798 0.102829 0.651184
0.088897 0.102782 0.650887
0.090973 0.102711 0.650432
0.092906 0.102485 0.649006
0.094993 0.102436 0.648691
0.097020 0.102326 0.647994
0.098964 0.102133 0.646777
0.101038 0.102082 0.646451
0.103108 0.102028 0.646111
0.105381 0.102173 0.647027
0.107449 0.102117 0.646673
0.109727 0.102260 0.647577
0.111948 0.102344 0.648113
0.114193 0.102448 0.648769
0.116366 0.102484 0.648996
0.118660 0.102623 0.649878
0.120722 0.102561 0.649485
0.123021 0.102698 0.650355
0.125242 0.102767 0.650789
0.127556 0.102908 0.651684
0.129694 0.102905 0.651664
0.132199 0.103189 0.653462
0.134527 0.103328 0.654341
0.136860 0.103466 0.655215
0.139598 0.103901 0.657970
0.142372 0.104349 0.660809
0.145806 0.105261 0.666580
0.162585 0.115636 0.732285
0.181731 0.127369 0.806584
0.184806 0.127662 0.808438
0.187125 0.127431 0.806980
0.189634 0.127336 0.806374
0.191965 0.127124 0.805034
0.194250 0.126889 0.803543
0.196362 0.126548 0.801387
0.198846 0.126453 0.800782
0.201105 0.126219 0.799300
0.203386 0.126005 0.797947
0.205838 0.125901 0.797287
0.208349 0.125834 0.796868
0.210965 0.125833 0.796858
0.213589 0.125836 0.796877
0.216023 0.125728 0.796196
0.218455 0.125622 0.795524
0.220877 0.125513 0.794833
0.223399 0.125463 0.794513
0.226156 0.125543 0.795024
0.228558 0.125428 0.794293
0.231323 0.125511 0.794823
0.233951 0.125520 0.794878
0.236825 0.125659 0.795757
0.239696 0.125793 0.796607
0.242694 0.125991 0.797859
0.245679 0.126177 0.799036
0.248953 0.126507 0.801125
0.252198 0.126814 0.803072
0.255534 0.127161 0.805267
0.259178 0.127652 0.808379
0.263077 0.128258 0.812215
0.267541 0.129124 0.817702
0.272350 0.130138 0.824121
0.275552 0.130372 0.825601
0.277489 0.130008 0.823298
0.278293 0.129126 0.817712
0.279569 0.128477 0.813603
0.281365 0.128078 0.811073
-0.193405 0.088356 0.547755
-0.191794 0.088444 0.548297
-0.189809 0.088358 0.547769
-0.187832 0.088275 0.547253
-0.185821 0.088174 0.546627
-0.183841 0.088087 0.546083
-0.181855 0.087994 0.545508
-0.179762 0.087847 0.544598
-0.177899 0.087811 0.544375
-0.175928 0.087720 0.543812
-0.174010 0.087654 0.543403
-0.172040 0.087560 0.542822
-0.170132 0.087497 0.542427
-0.168290 0.087466 0.542235
-0.166548 0.087487 0.542365
-0.164694 0.087449 0.542131
-0.162893 0.087438 0.542066
-0.161000 0.087378 0.541691
-0.159361 0.087455 0.542169
-0.157647 0.087493 0.542402
-0.155763 0.087436 0.542051
-0.154039 0.087468 0.542251
-0.152162 0.087414 0.541914
-0.150509 0.087488 0.542373
-0.148762 0.087509 0.542503
-0.146899 0.087462 0.542210
-0.145231 0.087530 0.542635
-0.143477 0.087548 0.542745
-0.141648 0.087520 0.542570
-0.139939 0.087567 0.542859
-0.138151 0.087564 0.542844
-0.136338 0.087545 0.542726
-0.134637 0.087599 0.543060
-0.132850 0.087597 0.543051
-0.131013 0.087562 0.542834
-0.129315 0.087620 0.543192
-0.127622 0.087684 0.543585
-0.125925 0.087746 0.543973
-0.124225 0.087808 0.544356
-0.122521 0.087869 0.544734
-0.120813 0.087929 0.545107
-0.119102 0.087988 0.545474
-0.117266 0.087956 0.545274
-0.115444 0.087933 0.545130
-0.113726 0.087990 0.545482
-0.111980 0.088026 0.545709
-0.110065 0.087929 0.545106
-0.108340 0.087983 0.545443
-0.106611 0.088036 0.545767
-0.104847 0.088061 0.545923
-0.103146 0.088140 0.546416
-0.101409 0.088191 0.546732
-0.099587 0.088169 0.546593
-0.097846 0.088218 0.546899
-0.096044 0.088214 0.546872
-0.094246 0.088214 0.546871
-0.092498 0.088260 0.547161
-0.090849 0.088406 0.548064
-0.089094 0.088451 0.548343
-0.087407 0.088568 0.549069
-0.085645 0.088611 0.549337
-0.083974 0.088754 0.550219
-0.082181 0.088770 0.550319
-0.080498 0.088909 0.551183
-0.078722 0.088949 0.551431
-0.077016 0.089072 0.552190
-0.075300 0.089189 0.552916
-0.073522 0.089236 0.553212
-0.071815 0.089374 0.554062
-0.070080 0.089483 0.554743
-0.068412 0.089687 0.556005
-0.066614 0.089726 0.556248
-0.064883 0.089860 0.557080
-0.063126 0.089966 0.557737
-0.061320 0.090006 0.557981
-0.059617 0.090204 0.559207
-0.057807 0.090246 0.559472
-0.056087 0.090437 0.560655
-0.054330 0.090581 0.561548
-0.052548 0.090691 0.562226
-0.050801 0.090871 0.563343
-0.049030 0.091019 0.564261
-0.047232 0.091128 0.564937
-0.045460 0.091297 0.565987
-0.043641 0.091384 0.566523
-0.041902 0.091651 0.568183
-0.040082 0.091761 0.568860
-0.038297 0.091962 0.570108
-0.036502 0.092163 0.571353
-0.034714 0.092401 0.572831
-0.032904 0.092603 0.574082
-0.031120 0.092909 0.575980
-0.029328 0.093230 0.577972
-0.027559 0.093676 0.580733
-0.025764 0.094088 0.583286
-0.023951 0.094497 0.585823
-0.022121 0.094908 0.588372
-0.020270 0.095294 0.590766
-0.018403 0.095681 0.593163
-0.016520 0.096068 0.595563
-0.014635 0.096544 0.598515
-0.012742 0.097112 0.602038
-0.010848 0.097875 0.606763
-0.008926 0.098671 0.611702
-0.006992 0.099757 0.618432
-0.005074 0.102056 0.632682
-0.003606 0.122876 0.761757
-0.001118 0.124615 0.772539
0.001435 0.125846 0.780169
0.004030 0.126843 0.786350
0.006661 0.127728 0.791836
0.009317 0.128469 0.796431
0.012004 0.129223 0.801105
0.014699 0.129771 0.804502
0.017442 0.130515 0.809114
0.020197 0.131138 0.812978
0.022931 0.131496 0.815198
0.025745 0.132186 0.819474
0.028742 0.133598 0.828230
0.031811 0.135074 0.837376
0.034530 0.134945 0.836575
0.037097 0.134285 0.832486
0.039589 0.133463 0.827391
0.042004 0.132504 0.821443
0.044476 0.131830 0.817267
0.046918 0.131150 0.813049
0.049328 0.130456 0.808750
0.051693 0.129722 0.804195
0.054082 0.129115 0.800436
0.056296 0.128166 0.794553
0.058788 0.127908 0.792954
0.058301 0.121464 0.753005
0.055405 0.110730 0.686459
0.056999 0.109460 0.678583
0.058832 0.108725 0.674031
0.060683 0.108076 0.670007
0.062601 0.107589 0.666988
0.064516 0.107129 0.664132
0.066412 0.106669 0.661281
0.068411 0.106398 0.659603
0.070287 0.105959 0.656881
0.072274 0.105707 0.655319
0.074250 0.105455 0.653754
0.076367 0.105411 0.653482
0.078330 0.105163 0.651949
0.080439 0.105120 0.651679
0.082546 0.105075 0.651402
0.084650 0.105030 0.651119
0.086751 0.104983 0.650831
0.088849 0.104935 0.650536
0.090907 0.104843 0.649963
0.092856 0.104632 0.648656
0.094942 0.104581 0.648341
0.096891 0.104386 0.647131
0.098910 0.104273 0.646429
0.100984 0.104220 0.646104
0.103053 0.104166 0.645764
0.105325 0.104313 0.646680
0.107391 0.104256 0.646327
0.109668 0.104402 0.647231
0.111840 0.104444 0.647488
0.114132 0.104595 0.648423
0.116304 0.104631 0.648650
0.118540 0.104724 0.649222
0.120658 0.104710 0.649140
0.122956 0.104851 0.650009
0.125176 0.104921 0.650444
0.127488 0.105065 0.651338
0.129730 0.105147 0.651847
0.132129 0.105352 0.653117
0.134456 0.105493 0.653996
0.136841 0.105675 0.655124
0.139623 0.106153 0.658086
0.142297 0.106536 0.660461
0.145584 0.107360 0.665564
0.159875 0.116154 0.720082
0.181616 0.130024 0.806069
0.184868 0.130449 0.808708
0.187392 0.130357 0.808132
0.189744 0.130148 0.806841
0.192031 0.129901 0.805310
0.194162 0.129558 0.803181
0.196644 0.129454 0.802537
0.198936 0.129230 0.801147
0.201208 0.128998 0.799711
0.203679 0.128899 0.799094
0.206135 0.128792 0.798434
0.208591 0.128689 0.797794
0.211102 0.128621 0.797374
0.213721 0.128620 0.797369
0.216156 0.128511 0.796687
0.218770 0.128508 0.796672
0.221196 0.128396 0.795980
0.223619 0.128286 0.795293
0.226296 0.128322 0.795518
0.228889 0.128310 0.795441
0.231434 0.128272 0.795206
0.234293 0.128406 0.796040
0.237022 0.128467 0.796418
0.239806 0.128557 0.796974
0.242678 0.128691 0.797804
0.245938 0.129026 0.799880
0.248921 0.129210 0.801021
0.252221 0.129552 0.803146
0.255623 0.129940 0.805548
0.259048 0.130332 0.807976
0.262994 0.130974 0.811960
0.267408 0.131835 0.817296
0.272458 0.132989 0.824448
0.276772 0.133764 0.829255
0.278759 0.133411 0.827067
0.280090 0.132754 0.822991
0.281080 0.131949 0.818002
0.282659 0.131433 0.814802
-0.193532 0.090275 0.548116
-0.191705 0.090263 0.548043
-0.189929 0.090275 0.548114
-0.187751 0.090094 0.547017
-0.185770 0.090005 0.546477
-0.183801 0.089921 0.545963
-0.181825 0.089831 0.545418
-0.179830 0.089730 0.544805
-0.177889 0.089654 0.544343
-0.175927 0.089566 0.543809
-0.173962 0.089474 0.543253
-0.172132 0.089451 0.543113
-0.170263 0.089407 0.542844
-0.168413 0.089372 0.542631
-0.166577 0.089344 0.542461
-0.164768 0.089329 0.542373
-0.162870 0.089266 0.541988
-0.161232 0.089345 0.542469
-0.159462 0.089352 0.542513
-0.157635 0.089327 0.542361
-0.155916 0.089364 0.542581
-0.154034 0.089306 0.542234
-0.152380 0.089381 0.542690
-0.150603 0.089386 0.542715
-0.148767 0.089354 0.542522
-0.147109 0.089430 0.542984
-0.145322 0.089429 0.542975
-0.143531 0.089424 0.542948
-0.141817 0.089468 0.543216
-0.140139 0.089537 0.543633
-0.138352 0.089536 0.543631
-0.136513 0.089502 0.543422
-0.134731 0.089505 0.543440
-0.133035 0.089565 0.543806
-0.131193 0.089528 0.543581
-0.129498 0.089591 0.543964
-0.127701 0.089584 0.543922
-0.126003 0.089648 0.544309
-0.124301 0.089711 0.544692
-0.122596 0.089774 0.545070
-0.120870 0.089822 0.545363
-0.119038 0.089792 0.545180
-0.117324 0.089851 0.545543
-0.115515 0.089838 0.545464
-0.113664 0.089793 0.545187
-0.111944 0.089850 0.545534
-0.110156 0.089854 0.545560
-0.108366 0.089856 0.545572
-0.106553 0.089840 0.545471
-0.104823 0.089893 0.545797
-0.103090 0.089946 0.546118
-0.101354 0.089998 0.546434
-0.099615 0.090049 0.546745
-0.097873 0.090100 0.547051
-0.096127 0.090148 0.547346
-0.094379 0.090197 0.547641
-0.092628 0.090245 0.547930
-0.090874 0.090291 0.548214
-0.089118 0.090337 0.548493
-0.087426 0.090451 0.549186
-0.085744 0.090581 0.549972
-0.083997 0.090646 0.550369
-0.082227 0.090689 0.550627
-0.080454 0.090730 0.550879
-0.078820 0.090934 0.552116
-0.077052 0.090988 0.552446
-0.075267 0.091026 0.552675
-0.073619 0.091234 0.553936
-0.071834 0.091279 0.554212
-0.070170 0.091484 0.555456
-0.068378 0.091529 0.555730
-0.066707 0.091742 0.557025
-0.064900 0.091776 0.557229
-0.063167 0.091919 0.558095
-0.061400 0.092020 0.558709
-0.059658 0.092165 0.559590
-0.057879 0.092260 0.560167
-0.056127 0.092408 0.561063
-0.054407 0.092618 0.562343
-0.052609 0.092705 0.562870
-0.050832 0.092838 0.563678
-0.049047 0.092968 0.564463
-0.047282 0.093143 0.565529
-0.045499 0.093299 0.566475
-0.043734 0.093506 0.567730
-0.041918 0.093617 0.568406
-0.040138 0.093823 0.569659
-0.038331 0.093981 0.570615
-0.036518 0.094143 0.571602
-0.034749 0.094439 0.573399
-0.032935 0.094643 0.574638
-0.031164 0.094999 0.576797
-0.029389 0.095391 0.579175
-0.027598 0.095783 0.581556
-0.025793 0.096176 0.583940
-0.023977 0.096594 0.586483
-0.022152 0.097040 0.589191
-0.020298 0.097435 0.591588
-0.018449 0.097943 0.594675
-0.016558 0.098315 0.596931
-0.014655 0.098715 0.599360
-0.012762 0.099309 0.602968
-0.010865 0.100091 0.607713
-0.008955 0.101067 0.613640
-0.007021 0.102278 0.620990
-0.005253 0.107877 0.654989
-0.003566 0.124065 0.753272
-0.001109 0.126169 0.766052
0.001423 0.127417 0.773624
0.003997 0.128435 0.779810
0.006619 0.129591 0.786829
0.009275 0.130585 0.792861
0.011950 0.131351 0.797514
0.014656 0.132121 0.802186
0.017394 0.132893 0.806876
0.020146 0.133562 0.810936
0.022899 0.134078 0.814068
0.025673 0.134594 0.817204
0.028508 0.135303 0.821506
0.031585 0.136938 0.831435
0.034581 0.137990 0.837822
0.037251 0.137681 0.835947
0.039742 0.136799 0.830593
0.042172 0.135835 0.824735
0.044581 0.134923 0.819198
0.047003 0.134152 0.814520
0.049402 0.133401 0.809959
0.051766 0.132638 0.805325
0.054157 0.132016 0.801552
0.056439 0.131197 0.796580
0.058880 0.130804 0.794193
0.059697 0.126989 0.771026
0.055398 0.113046 0.686373
0.056967 0.111701 0.678204
0.058799 0.110952 0.673656
0.060659 0.110308 0.669749
0.062566 0.109792 0.666617
0.064480 0.109322 0.663762
0.066375 0.108853 0.660913
0.068252 0.108385 0.658073
0.070248 0.108129 0.656516
0.072231 0.107867 0.654925
0.074209 0.107614 0.653392
0.076323 0.107567 0.653108
0.078286 0.107317 0.651588
0.080395 0.107273 0.651318
0.082500 0.107227 0.651042
0.084603 0.107181 0.650760
0.086703 0.107133 0.650472
0.088800 0.107085 0.650177
0.090718 0.106826 0.648607
0.092805 0.106775 0.648299
0.094860 0.106691 0.647784
0.096782 0.106463 0.646401
0.098856 0.106409 0.646074
0.100929 0.106356 0.645750
0.102997 0.106300 0.645410
0.105195 0.106378 0.645886
0.107332 0.106392 0.645974
0.109608 0.106541 0.646877
0.111715 0.106523 0.646767
0.113954 0.106629 0.647411
0.116180 0.106720 0.647960
0.118355 0.106761 0.648212
0.120593 0.106856 0.648787
0.122801 0.106923 0.649192
0.125013 0.106989 0.649596
0.127248 0.107074 0.650110
0.129555 0.107215 0.650967
0.132058 0.107511 0.652764
0.134384 0.107656 0.653643
0.136982 0.108010 0.655797
0.139594 0.108365 0.657952
0.142221 0.108720 0.660107
0.145400 0.109480 0.664722
0.159317 0.118184 0.717569
0.182071 0.133093 0.808091
0.185124 0.133380 0.809829
0.187509 0.133183 0.808636
0.189805 0.132930 0.807100
0.192147 0.132716 0.805798
0.194426 0.132464 0.804272
0.196540 0.132109 0.802112
0.199026 0.132009 0.801508
0.201334 0.131796 0.800212
0.203761 0.131665 0.799416
0.206264 0.131585 0.798936
0.208722 0.131480 0.798296
0.211337 0.131475 0.798263
0.213785 0.131367 0.797608
0.216221 0.131255 0.796927
0.218747 0.131199 0.796589
0.221405 0.131223 0.796732
0.223939 0.131173 0.796433
0.226482 0.131130 0.796170
0.229121 0.131143 0.796249
0.231635 0.131085 0.795897
0.234401 0.131169 0.796408
0.237279 0.131313 0.797282
0.240039 0.131390 0.797749
0.243030 0.131590 0.798961
0.245913 0.131728 0.799800
0.249188 0.132070 0.801878
0.252383 0.132364 0.803663
0.255787 0.132760 0.806067
0.259372 0.133241 0.808986
0.263329 0.133901 0.812994
0.267581 0.134697 0.817825
0.272803 0.135959 0.825493
0.278198 0.137283 0.833529
0.280760 0.137196 0.833003
0.281952 0.136448 0.828460
0.282924 0.135609 0.823367
0.284420 0.135035 0.819880
-0.193586 0.092162 0.548270
-0.191974 0.092253 0.548811
-0.189973 0.092157 0.548242
-0.188008 0.092077 0.547766
-0.185994 0.091971 0.547136
-0.184012 0.091880 0.546591
-0.182024 0.091783 0.546014
-0.179766 0.091547 0.544611
-0.177957 0.091537 0.544553
-0.176144 0.091525 0.544479
-0.174113 0.091398 0.543726
-0.172242 0.091353 0.543461
-0.170243 0.091239 0.542779
-0.168449 0.091234 0.542748
-0.166648 0.091224 0.542692
-0.164738 0.091154 0.542273
-0.163045 0.091204 0.542570
-0.161244 0.091194 0.542512
-0.159505 0.091219 0.542659
-0.157793 0.091260 0.542906
-0.155903 0.091198 0.542539
-0.154182 0.091235 0.542755
-0.152299 0.091175 0.542400
-0.150643 0.091252 0.542859
-0.148978 0.091325 0.543292
-0.147204 0.091332 0.543333
-0.145361 0.091296 0.543118
-0.143695 0.091372 0.543570
-0.141930 0.091385 0.543651
-0.140228 0.091441 0.543981
-0.138387 0.091406 0.543772
-0.136706 0.091476 0.544190
-0.134771 0.091377 0.543600
-0.133069 0.091435 0.543945
-0.131378 0.091502 0.544347
-0.129580 0.091496 0.544309
-0.127884 0.091562 0.544701
-0.126177 0.091622 0.545061
-0.124469 0.091684 0.545426
-0.122627 0.091647 0.545208
-0.120918 0.091710 0.545581
-0.119191 0.091760 0.545880
-0.117372 0.091741 0.545767
-0.115680 0.091821 0.546244
-0.113803 0.091755 0.545851
-0.111979 0.091730 0.545704
-0.110159 0.091709 0.545575
-0.108433 0.091765 0.545911
-0.106673 0.091795 0.546085
-0.104889 0.091803 0.546138
-0.103234 0.091929 0.546882
-0.101496 0.091982 0.547199
-0.099754 0.092034 0.547510
-0.097934 0.092014 0.547391
-0.096127 0.092007 0.547350
-0.094326 0.092005 0.547335
-0.092639 0.092116 0.547997
-0.090973 0.092253 0.548811
-0.089242 0.092328 0.549258
-0.087481 0.092374 0.549532
-0.085717 0.092419 0.549800
-0.083950 0.092463 0.550060
-0.082253 0.092587 0.550801
-0.080552 0.092713 0.551549
-0.078788 0.092771 0.551893
-0.077084 0.092902 0.552674
-0.075364 0.093021 0.553382
-0.073661 0.093167 0.554252
-0.071934 0.093290 0.554982
-0.070138 0.093328 0.555205
-0.068471 0.093543 0.556488
-0.066669 0.093581 0.556710
-0.064941 0.093727 0.557581
-0.063179 0.093831 0.558200
-0.061442 0.093980 0.559086
-0.059667 0.094078 0.559671
-0.057855 0.094123 0.559939
-0.056151 0.094352 0.561300
-0.054424 0.094556 0.562514
-0.052681 0.094747 0.563649
-0.050858 0.094802 0.563974
-0.049100 0.094985 0.565063
-0.047272 0.095043 0.565411
-0.045527 0.095281 0.566823
-0.043750 0.095468 0.567938
-0.041957 0.095636 0.568935
-0.040175 0.095843 0.570172
-0.038367 0.096009 0.571159
-0.036569 0.096218 0.572399
-0.034777 0.096463 0.573858
-0.032969 0.096694 0.575230
-0.031207 0.097093 0.577608
-0.029430 0.097494 0.579989
-0.027637 0.097894 0.582373
-0.025829 0.098296 0.584761
-0.024017 0.098749 0.587458
-0.022177 0.099154 0.589867
-0.020326 0.099581 0.592405
-0.018470 0.100074 0.595338
-0.016585 0.100508 0.597920
-0.014688 0.100977 0.600710
-0.012788 0.101564 0.604206
-0.010881 0.102298 0.608567
-0.008968 0.103304 0.614552
-0.007064 0.105024 0.624790
-0.005513 0.115543 0.687364
-0.003528 0.125284 0.745312
-0.001096 0.127288 0.757234
0.001409 0.128808 0.766277
0.003971 0.130226 0.774716
0.006569 0.131280 0.780985
0.009224 0.132540 0.788481
0.011898 0.133472 0.794021
0.014596 0.134284 0.798855
0.017316 0.135023 0.803250
0.020072 0.135811 0.807938
0.022815 0.136336 0.811059
0.025578 0.136861 0.814183
0.028418 0.137655 0.818908
0.031319 0.138583 0.824427
0.034434 0.140235 0.834255
0.037350 0.140892 0.838165
0.039916 0.140231 0.834235
0.042332 0.139161 0.827870
0.044689 0.138037 0.821180
0.047069 0.137108 0.815657
0.049492 0.136399 0.811438
0.051838 0.135560 0.806447
0.054232 0.134924 0.802661
0.056521 0.134095 0.797732
0.058924 0.133599 0.794777
0.060273 0.130857 0.778466
0.055586 0.115768 0.688703
0.056965 0.113997 0.678169
0.058766 0.113174 0.673273
0.060610 0.112490 0.669204
0.062531 0.111992 0.666238
0.064379 0.111401 0.662724
0.066328 0.111017 0.660442
0.068214 0.110557 0.657700
0.070209 0.110295 0.656144
0.072187 0.110024 0.654534
0.074165 0.109768 0.653008
0.076132 0.109511 0.651478
0.078242 0.109467 0.651220
0.080349 0.109422 0.650951
0.082454 0.109376 0.650676
0.084555 0.109328 0.650393
0.086552 0.109151 0.649341
0.088577 0.109017 0.648543
0.090667 0.108967 0.648243
0.092627 0.108767 0.647052
0.094651 0.108650 0.646358
0.096728 0.108596 0.646039
0.098801 0.108542 0.645713
0.100872 0.108487 0.645389
0.102939 0.108430 0.645050
0.105036 0.108407 0.644910
0.107273 0.108525 0.645614
0.109373 0.108504 0.645489
0.111609 0.108615 0.646153
0.113827 0.108705 0.646686
0.115949 0.108703 0.646674
0.118235 0.108851 0.647554
0.120470 0.108947 0.648127
0.122582 0.108931 0.648031
0.124878 0.109076 0.648894
0.127178 0.109221 0.649752
0.129484 0.109365 0.650609
0.131985 0.109667 0.652406
0.134310 0.109814 0.653285
0.136907 0.110176 0.655438
0.139654 0.110646 0.658235
0.142421 0.111117 0.661036
0.145572 0.111869 0.665510
0.162749 0.123218 0.733025
0.182163 0.135905 0.808500
0.185034 0.136063 0.809437
0.187556 0.135963 0.808842
0.189920 0.135752 0.807589
0.192188 0.135480 0.805971
0.194334 0.135130 0.803890
0.196801 0.135011 0.803179
0.198919 0.134658 0.801076
0.201386 0.134547 0.800421
0.203860 0.134444 0.799805
0.206318 0.134333 0.799146
0.208777 0.134226 0.798506
0.211473 0.134271 0.798778
0.213923 0.134161 0.798122
0.216361 0.134047 0.797442
0.218967 0.134038 0.797389
0.221396 0.133921 0.796698
0.224085 0.133964 0.796950
0.226688 0.133954 0.796894
0.229224 0.133906 0.796608
0.231877 0.133926 0.796726
0.234739 0.134065 0.797554
0.237394 0.134085 0.797670
0.240273 0.134229 0.798527
0.243269 0.134434 0.799749
0.246268 0.134637 0.800952
0.249415 0.134915 0.802610
0.252751 0.135289 0.804835
0.256161 0.135694 0.807243
0.259746 0.136183 0.810152
0.263709 0.136858 0.814166
0.267973 0.137674 0.819021
0.273196 0.138961 0.826681
0.279227 0.140631 0.836613
0.282831 0.141057 0.839147
0.283729 0.140138 0.833682
0.285011 0.139425 0.829441
0.286843 0.138992 0.826864
-0.193866 0.094159 0.549062
-0.192112 0.094183 0.549205
-0.190113 0.094088 0.548647
-0.187925 0.093895 0.547524
-0.185941 0.093802 0.546982
-0.183970 0.093714 0.546466
-0.181968 0.093608 0.545847
-0.179997 0.093516 0.545311
-0.178052 0.093435 0.544842
-0.176088 0.093343 0.544306
-0.174270 0.093328 0.544215
-0.172294 0.093227 0.543625
-0.170417 0.093177 0.543337
-0.168518 0.093114 0.542971
-0.166612 0.093047 0.542575
-0.164835 0.093050 0.542595
-0.163016 0.093029 0.542476
-0.161376 0.093112 0.542956
-0.159613 0.093124 0.543026
-0.157776 0.093093 0.542846
-0.156059 0.093133 0.543081
-0.154171 0.093071 0.542717
-0.152444 0.093105 0.542918
-0.150744 0.093158 0.543223
-0.148899 0.093120 0.543003
-0.147239 0.093199 0.543464
-0.145486 0.093220 0.543588
-0.143659 0.093194 0.543433
-0.141941 0.093238 0.543693
-0.140262 0.093310 0.544110
-0.138495 0.093324 0.544195
-0.136632 0.093273 0.543897
-0.134946 0.093343 0.544307
-0.133257 0.093413 0.544714
-0.131465 0.093412 0.544708
-0.129610 0.093366 0.544436
-0.127913 0.093433 0.544828
-0.126213 0.093499 0.545215
-0.124508 0.093565 0.545598
-0.122800 0.093630 0.545976
-0.120998 0.093623 0.545939
-0.119283 0.093686 0.546305
-0.117540 0.093727 0.546546
-0.115706 0.093697 0.546367
-0.113865 0.093660 0.546151
-0.112039 0.093634 0.545999
-0.110289 0.093671 0.546219
-0.108461 0.093643 0.546054
-0.106643 0.093622 0.545933
-0.104912 0.093678 0.546259
-0.103177 0.093733 0.546580
-0.101440 0.093787 0.546896
-0.099699 0.093841 0.547206
-0.097955 0.093893 0.547512
-0.096208 0.093944 0.547806
-0.094426 0.093962 0.547915
-0.092706 0.094044 0.548389
-0.090951 0.094092 0.548673
-0.089193 0.094140 0.548952
-0.087432 0.094187 0.549225
-0.085669 0.094233 0.549493
-0.084049 0.094442 0.550710
-0.082295 0.094506 0.551085
-0.080521 0.094549 0.551337
-0.078820 0.094683 0.552115
-0.077115 0.094818 0.552903
-0.075407 0.094955 0.553703
-0.073686 0.095082 0.554444
-0.071893 0.095121 0.554669
-0.070228 0.095334 0.555914
-0.068434 0.095381 0.556188
-0.066762 0.095603 0.557483
-0.064955 0.095641 0.557705
-0.063222 0.095791 0.558579
-0.061451 0.095892 0.559168
-0.059705 0.096039 0.560027
-0.057936 0.096158 0.560718
-0.056211 0.096360 0.561897
-0.054454 0.096519 0.562825
-0.052666 0.096632 0.563480
-0.050885 0.096767 0.564272
-0.049088 0.096880 0.564931
-0.047338 0.097098 0.566199
-0.045579 0.097315 0.567466
-0.043792 0.097489 0.568482
-0.041996 0.097658 0.569463
-0.040172 0.097773 0.570134
-0.038382 0.097987 0.571385
-0.036597 0.098236 0.572837
-0.034812 0.098511 0.574438
-0.033016 0.098785 0.576041
-0.031251 0.099194 0.578421
-0.029472 0.099603 0.580806
-0.027676 0.100012 0.583193
-0.025865 0.100422 0.585585
-0.024057 0.100909 0.588421
-0.022213 0.101320 0.590821
-0.020354 0.101732 0.593225
-0.018501 0.102268 0.596348
-0.016609 0.102682 0.598761
-0.014700 0.103096 0.601178
-0.012806 0.103759 0.605042
-0.010896 0.104510 0.609424
-0.008987 0.105609 0.615829
-0.007077 0.107344 0.625948
-0.005735 0.122631 0.715089
-0.003482 0.126159 0.735660
-0.001079 0.127860 0.745582
0.001390 0.129645 0.755987
0.003925 0.131336 0.765850
0.006514 0.132798 0.774374
0.009148 0.134113 0.782045
0.011834 0.135440 0.789783
0.014553 0.136600 0.796548
0.017255 0.137268 0.800440
0.019982 0.137931 0.804309
0.022685 0.138298 0.806447
0.025483 0.139102 0.811136
0.028297 0.139838 0.815424
0.031178 0.140745 0.820717
0.034223 0.142191 0.829148
0.037225 0.143256 0.835358
0.039963 0.143230 0.835205
0.042392 0.142172 0.829036
0.044769 0.141078 0.822656
0.047135 0.140073 0.816797
0.049514 0.139215 0.811792
0.051883 0.138419 0.807153
0.054283 0.137778 0.803414
0.056573 0.136929 0.798465
0.058947 0.136350 0.795088
0.060592 0.134206 0.782587
0.055989 0.118961 0.693691
0.056882 0.116131 0.677187
0.058628 0.115190 0.671698
0.060566 0.114679 0.668717
0.062420 0.114052 0.665061
0.064288 0.113491 0.661793
0.066170 0.112991 0.658877
0.068167 0.112713 0.657253
0.070081 0.112318 0.654953
0.072011 0.111973 0.652939
0.073980 0.111706 0.651381
0.076089 0.111659 0.651111
0.078104 0.111481 0.650072
0.080208 0.111435 0.649804
0.082308 0.111388 0.649529
0.084343 0.111256 0.648760
0.086437 0.111207 0.648474
0.088528 0.111157 0.648180
0.090593 0.111077 0.647715
0.092520 0.110836 0.646310
0.094598 0.110782 0.645997
0.096639 0.110688 0.645448
0.098627 0.110539 0.644578
0.100695 0.110484 0.644255
0.102805 0.110476 0.644212
0.104945 0.110499 0.644347
0.107095 0.110534 0.644547
0.109273 0.110594 0.644898
0.111437 0.110638 0.645156
0.113650 0.110729 0.645684
0.115885 0.110837 0.646317
0.118073 0.110896 0.646662
0.120225 0.110921 0.646807
0.122514 0.111070 0.647675
0.124809 0.111218 0.648538
0.127108 0.111365 0.649395
0.129413 0.111512 0.650252
0.131913 0.111820 0.652048
0.134362 0.112075 0.653535
0.136832 0.112340 0.655080
0.139696 0.112915 0.658434
0.142515 0.113436 0.661471
0.145933 0.114411 0.667159
0.170750 0.131887 0.769064
0.182106 0.138607 0.808247
0.184934 0.138736 0.808998
0.187455 0.138634 0.808404
0.189961 0.138524 0.807763
0.192105 0.138156 0.805621
0.194444 0.137938 0.804345
0.196712 0.137675 0.802815
0.199201 0.137572 0.802212
0.201647 0.137442 0.801456
0.203996 0.137251 0.800339
0.206456 0.137138 0.799680
0.209035 0.137105 0.799491
0.211525 0.137016 0.798971
0.213975 0.136904 0.798316
0.216414 0.136787 0.797636
0.219115 0.136837 0.797926
0.221610 0.136758 0.797468
0.224140 0.136703 0.797147
0.226690 0.136661 0.796902
0.229424 0.136729 0.797300
0.231984 0.136694 0.797096
0.234851 0.136838 0.797935
0.237577 0.136898 0.798286
0.240451 0.137041 0.799117
0.243506 0.137283 0.800525
0.246517 0.137495 0.801763
0.249715 0.137806 0.803576
0.253121 0.138223 0.806010
0.256451 0.138591 0.808158
0.260121 0.139134 0.811322
0.264090 0.139823 0.815342
0.268365 0.140660 0.820220
0.273108 0.141723 0.826416
0.279818 0.143775 0.838382
0.284575 0.144793 0.844320
0.285779 0.144002 0.839706
0.287114 0.143291 0.835561
0.288960 0.142846 0.832966
-0.193767 0.095974 0.548782
-0.192158 0.096071 0.549338
-0.190162 0.095975 0.548787
-0.188160 0.095873 0.548208
-0.186163 0.095773 0.547634
-0.184179 0.095678 0.547088
-0.182189 0.095577 0.546510
-0.180105 0.095424 0.545637
-0.178175 0.095351 0.545220
-0.176249 0.095278 0.544804
-0.174270 0.095175 0.544215
-0.172358 0.095107 0.543824
-0.170440 0.095034 0.543410
-0.168475 0.094933 0.542830
-0.166800 0.094995 0.543186
-0.164884 0.094920 0.542756
-0.163037 0.094883 0.542546
-0.161289 0.094904 0.542663
-0.159646 0.094987 0.543139
-0.157779 0.094938 0.542858
-0.156041 0.094966 0.543017
-0.154276 0.094978 0.543088
-0.152432 0.094941 0.542876
-0.150775 0.095021 0.543334
-0.149035 0.095050 0.543498
-0.147211 0.095026 0.543361
-0.145487 0.095066 0.543590
-0.143820 0.095145 0.544041
-0.141899 0.095056 0.543533
-0.140184 0.095104 0.543810
-0.138507 0.095180 0.544241
-0.136823 0.095253 0.544659
-0.134887 0.095150 0.544069
-0.133183 0.095210 0.544412
-0.131491 0.095280 0.544814
-0.129697 0.095278 0.544801
-0.128092 0.095415 0.545589
-0.126389 0.095483 0.545976
-0.124682 0.095550 0.546359
-0.122971 0.095616 0.546737
-0.121169 0.095612 0.546713
-0.119452 0.095676 0.547079
-0.117588 0.095622 0.546770
-0.115753 0.095590 0.546588
-0.113920 0.095559 0.546411
-0.112077 0.095519 0.546181
-0.110252 0.095493 0.546032
-0.108524 0.095552 0.546368
-0.106714 0.095539 0.546294
-0.104981 0.095596 0.546620
-0.103276 0.095680 0.547103
-0.101506 0.095707 0.547256
-0.099708 0.095707 0.547254
-0.097959 0.095755 0.547531
-0.096153 0.095749 0.547494
-0.094404 0.095800 0.547787
-0.092653 0.095850 0.548076
-0.090899 0.095900 0.548360
-0.089142 0.095949 0.548638
-0.087382 0.095996 0.548910
-0.085725 0.096161 0.549852
-0.084018 0.096276 0.550511
-0.082248 0.096321 0.550768
-0.080551 0.096457 0.551543
-0.078853 0.096597 0.552344
-0.077150 0.096737 0.553148
-0.075433 0.096868 0.553894
-0.073644 0.096908 0.554124
-0.071988 0.097131 0.555398
-0.070195 0.097176 0.555656
-0.068527 0.097401 0.556940
-0.066723 0.097439 0.557161
-0.065043 0.097665 0.558454
-0.063230 0.097700 0.558652
-0.061494 0.097859 0.559563
-0.059723 0.097970 0.560198
-0.057969 0.098118 0.561044
-0.056254 0.098343 0.562328
-0.054468 0.098456 0.562972
-0.052724 0.098653 0.564102
-0.050900 0.098711 0.564434
-0.049156 0.098934 0.565709
-0.047385 0.099119 0.566766
-0.045601 0.099290 0.567741
-0.043797 0.099432 0.568553
-0.041991 0.099578 0.569391
-0.040207 0.099794 0.570628
-0.038399 0.099970 0.571631
-0.036621 0.100245 0.573205
-0.034839 0.100538 0.574881
-0.033062 0.100881 0.576843
-0.031295 0.101298 0.579227
-0.029513 0.101716 0.581615
-0.027715 0.102134 0.584006
-0.025913 0.102601 0.586674
-0.024090 0.103047 0.589226
-0.022244 0.103467 0.591629
-0.020400 0.103981 0.594566
-0.018522 0.104406 0.596999
-0.016632 0.104860 0.599595
-0.014731 0.105360 0.602452
-0.012839 0.106088 0.606613
-0.010919 0.106805 0.610715
-0.009009 0.107965 0.617349
-0.007104 0.109876 0.628274
-0.005781 0.126053 0.720773
-0.003446 0.127329 0.728070
-0.001063 0.128440 0.734422
0.001370 0.130327 0.745212
0.003873 0.132143 0.755598
0.006440 0.133886 0.765562
0.009062 0.135484 0.774700
0.011746 0.137093 0.783903
0.014456 0.138367 0.791188
0.017091 0.138657 0.792843
0.019695 0.138642 0.792759
0.022376 0.139112 0.795446
0.025159 0.140055 0.800838
0.027992 0.141070 0.806641
0.030871 0.142116 0.812627
0.033869 0.143506 0.820569
0.037032 0.145334 0.831023
0.039935 0.145966 0.834637
0.042371 0.144913 0.828619
0.044759 0.143838 0.822473
0.047125 0.142817 0.816633
0.049505 0.141945 0.811646
0.051853 0.141077 0.806681
0.054276 0.140486 0.803304
0.056593 0.139688 0.798742
0.058966 0.139096 0.795353
0.061057 0.137915 0.788602
0.056373 0.122150 0.698458
0.056788 0.118235 0.676069
0.058529 0.117271 0.670560
0.060447 0.116720 0.667408
0.062337 0.116155 0.664176
0.064244 0.115657 0.661333
0.066132 0.115161 0.658495
0.068003 0.114666 0.655666
0.069992 0.114395 0.654115
0.071970 0.114123 0.652561
0.073938 0.113851 0.651004
0.075952 0.113664 0.649937
0.078001 0.113537 0.649209
0.080101 0.113490 0.648941
0.082199 0.113442 0.648667
0.084294 0.113393 0.648386
0.086298 0.113226 0.647431
0.088357 0.113138 0.646927
0.090387 0.113019 0.646244
0.092467 0.112965 0.645939
0.094428 0.112772 0.644836
0.096430 0.112635 0.644049
0.098497 0.112578 0.643725
0.100562 0.112522 0.643403
0.102623 0.112463 0.643066
0.104809 0.112541 0.643513
0.106943 0.112561 0.643630
0.109211 0.112719 0.644531
0.111306 0.112696 0.644399
0.113541 0.112812 0.645065
0.115640 0.112792 0.644947
0.117873 0.112900 0.645568
0.120157 0.113053 0.646441
0.122445 0.113205 0.647309
0.124656 0.113281 0.647743
0.126959 0.113437 0.648636
0.129340 0.113656 0.649886
0.131839 0.113970 0.651682
0.134348 0.114282 0.653470
0.137023 0.114723 0.655992
0.139636 0.115101 0.658149
0.142542 0.115704 0.661597
0.145412 0.116260 0.664779
0.176010 0.138641 0.792754
0.182168 0.141399 0.808523
0.185189 0.141677 0.810111
0.187352 0.141300 0.807958
0.189861 0.141192 0.807340
0.191998 0.140813 0.805175
0.194501 0.140710 0.804583
0.196819 0.140476 0.803249
0.199091 0.140218 0.801770
0.201561 0.140103 0.801115
0.204037 0.139996 0.800499
0.206498 0.139881 0.799841
0.208959 0.139769 0.799203
0.211711 0.139852 0.799676
0.214276 0.139810 0.799441
0.216719 0.139691 0.798760
0.219160 0.139574 0.798090
