ply
format ascii 1.0
comment generated by convert_depth_to_ply.py
element vertex 1678
property float x
property float y
property float z
end_header
0.244494 -0.144965 0.867015
0.247353 -0.145415 0.869703
0.250277 -0.145894 0.872568
0.253215 -0.146374 0.875438
0.256883 -0.147264 0.880762
0.261200 -0.148509 0.888206
0.303508 -0.171157 1.023662
0.362506 -0.202775 1.212766
0.362921 -0.201379 1.204415
0.366762 -0.201892 1.207482
0.368897 -0.201464 1.204926
0.371223 -0.201147 1.203030
0.374592 -0.201395 1.204513
0.378241 -0.201789 1.206869
0.380908 -0.201658 1.206081
0.383939 -0.201719 1.206450
0.387138 -0.201867 1.207335
0.390398 -0.202045 1.208396
0.393449 -0.202112 1.208799
0.396455 -0.202155 1.209059
0.399800 -0.202370 1.210341
0.402992 -0.202504 1.211144
0.405889 -0.202490 1.211057
0.408572 -0.202369 1.210337
0.411212 -0.202229 1.209499
0.414099 -0.202212 1.209397
0.416461 -0.201940 1.207771
0.419465 -0.201982 1.208019
0.422494 -0.202034 1.208332
0.425156 -0.201912 1.207600
0.428100 -0.201924 1.207675
0.431047 -0.201937 1.207756
0.434484 -0.202179 1.209200
0.437927 -0.202420 1.210641
0.441376 -0.202660 1.212079
0.445183 -0.203061 1.214476
0.448323 -0.203154 1.215032
0.451709 -0.203357 1.216246
0.454820 -0.203434 1.216707
0.458215 -0.203636 1.217915
0.461775 -0.203909 1.219547
0.466693 -0.204774 1.224718
0.471960 -0.205780 1.230737
-0.288784 -0.122907 0.745619
-0.288908 -0.123732 0.750622
-0.287876 -0.124069 0.752666
-0.286266 -0.124160 0.753217
-0.284117 -0.124016 0.752343
-0.282116 -0.123935 0.751855
-0.280520 -0.124033 0.752447
-0.278920 -0.124130 0.753036
-0.277738 -0.124415 0.754768
-0.276128 -0.124512 0.755353
-0.274061 -0.124402 0.754688
-0.272343 -0.124451 0.754982
-0.270726 -0.124546 0.755558
-0.269104 -0.124640 0.756131
-0.266957 -0.124491 0.755226
-0.264814 -0.124341 0.754318
-0.262570 -0.124142 0.753110
-0.260118 -0.123841 0.751284
-0.258380 -0.123878 0.751509
-0.256773 -0.123979 0.752122
-0.254587 -0.123800 0.751033
-0.253704 -0.124256 0.753801
-0.351187 -0.173244 1.050986
-0.406106 -0.201795 1.224194
-0.407584 -0.204015 1.237662
-0.380933 -0.192085 1.165284
-0.254333 -0.129202 0.783806
-0.250412 -0.128164 0.777512
-0.246929 -0.127337 0.772492
-0.244264 -0.126922 0.769975
-0.241608 -0.126506 0.767448
-0.239443 -0.126342 0.766455
-0.237283 -0.126178 0.765460
-0.235318 -0.126116 0.765084
-0.233169 -0.125954 0.764102
-0.231025 -0.125792 0.763119
-0.229333 -0.125875 0.763623
-0.227245 -0.125741 0.762809
-0.225333 -0.125702 0.762576
-0.223354 -0.125626 0.762110
-0.221648 -0.125702 0.762575
-0.219946 -0.125782 0.763062
-0.218240 -0.125862 0.763545
-0.216531 -0.125941 0.764026
-0.214819 -0.126020 0.764503
-0.213521 -0.126345 0.766472
-0.211852 -0.126454 0.767135
-0.210484 -0.126747 0.768911
-0.209161 -0.127071 0.770881
-0.207695 -0.127314 0.772355
-0.206325 -0.127621 0.774217
-0.205638 -0.128360 0.778701
-0.205953 -0.129744 0.787094
-0.208156 -0.132354 0.802929
-0.208366 -0.133734 0.811300
-0.208740 -0.135247 0.820477
-0.209970 -0.137348 0.833225
-0.220439 -0.145592 0.883238
-0.243209 -0.162201 0.983997
-0.216374 -0.145729 0.884067
-0.203034 -0.138108 0.837832
-0.199190 -0.136858 0.830249
-0.196515 -0.136393 0.827432
-0.193856 -0.135931 0.824625
-0.191278 -0.135516 0.822110
-0.188951 -0.135272 0.820629
-0.186327 -0.134808 0.817816
-0.183721 -0.134348 0.815022
-0.178709 -0.132098 0.801378
-0.172116 -0.128618 0.780267
-0.169583 -0.128129 0.777297
-0.167744 -0.128159 0.777478
-0.165622 -0.127971 0.776338
-0.163825 -0.128033 0.776712
-0.162025 -0.128094 0.777083
-0.160140 -0.128087 0.777044
-0.158415 -0.128211 0.777796
-0.156608 -0.128270 0.778155
-0.154799 -0.128329 0.778510
-0.152987 -0.128387 0.778862
-0.151172 -0.128444 0.779209
-0.149420 -0.128557 0.779892
-0.147817 -0.128802 0.781377
-0.146284 -0.129115 0.783279
-0.144261 -0.128998 0.782571
-0.143049 -0.129614 0.786307
-0.137964 -0.126689 0.768561
-0.130822 -0.121769 0.738716
-0.120349 -0.113571 0.688980
-0.118435 -0.113333 0.687534
-0.116826 -0.113383 0.687841
-0.115282 -0.113499 0.688545
-0.113887 -0.113767 0.690172
-0.112484 -0.114036 0.691799
-0.111034 -0.114264 0.693185
-0.109408 -0.114315 0.693494
-0.107841 -0.114430 0.694192
-0.106583 -0.114882 0.696934
-0.105178 -0.115188 0.698791
-0.103692 -0.115413 0.700156
-0.102034 -0.115452 0.700390
-0.100458 -0.115586 0.701203
-0.098907 -0.115753 0.702216
-0.097156 -0.115689 0.701828
-0.095388 -0.115601 0.701294
-0.093637 -0.115531 0.700869
-0.091835 -0.115395 0.700044
-0.090171 -0.115429 0.700255
-0.088653 -0.115657 0.701635
-0.087372 -0.116208 0.704975
-0.086310 -0.117079 0.710260
-0.086626 -0.119891 0.727323
-0.106692 -0.150719 0.914342
-0.113919 -0.164331 0.996920
-0.113815 -0.167729 1.017529
-0.112009 -0.168712 1.023494
-0.077595 -0.119515 0.725042
-0.073772 -0.116252 0.705242
-0.071603 -0.115500 0.700684
-0.069580 -0.114956 0.697382
-0.067644 -0.114531 0.694805
-0.065849 -0.114330 0.693584
-0.064060 -0.114128 0.692362
-0.062328 -0.114021 0.691708
-0.060565 -0.113847 0.690658
-0.058908 -0.113870 0.690795
-0.057138 -0.113670 0.689579
-0.055482 -0.113691 0.689707
-0.053762 -0.113577 0.689019
-0.052066 -0.113509 0.688605
-0.050411 -0.113529 0.688723
-0.048680 -0.113374 0.687787
-0.047097 -0.113565 0.688943
-0.045440 -0.113582 0.689047
-0.043781 -0.113599 0.689149
-0.042184 -0.113783 0.690268
-0.040541 -0.113852 0.690686
-0.038936 -0.114040 0.691827
-0.037297 -0.114139 0.692429
-0.035698 -0.114377 0.693868
-0.034079 -0.114571 0.695046
-0.032468 -0.114813 0.696513
-0.030838 -0.115010 0.697710
-0.029413 -0.116036 0.703935
-0.029109 -0.121888 0.739438
-0.028277 -0.126144 0.765256
-0.026669 -0.127296 0.772246
-0.024943 -0.128014 0.776600
-0.023181 -0.128651 0.780463
-0.021707 -0.131138 0.795552
-0.024322 -0.161214 0.978010
-0.022095 -0.162209 0.984047
-0.019718 -0.162216 0.984089
-0.017317 -0.161997 0.982756
-0.014941 -0.161981 0.982660
-0.012561 -0.161915 0.982262
-0.010169 -0.161617 0.980455
-0.007788 -0.161368 0.978939
-0.005420 -0.161291 0.978474
-0.003050 -0.160977 0.976568
-0.000690 -0.160976 0.976565
0.001667 -0.160729 0.975065
0.004021 -0.160658 0.974637
0.006376 -0.160655 0.974617
0.008731 -0.160651 0.974592
0.011085 -0.160646 0.974561
0.013439 -0.160640 0.974524
0.015800 -0.160696 0.974864
0.018147 -0.160625 0.974434
0.020501 -0.160616 0.974381
0.022854 -0.160606 0.974322
0.025206 -0.160596 0.974257
0.027558 -0.160584 0.974187
0.029912 -0.160583 0.974181
0.032275 -0.160627 0.974450
0.034626 -0.160613 0.974363
0.036977 -0.160598 0.974270
0.039323 -0.160567 0.974082
0.041595 -0.160251 0.972168
0.043939 -0.160233 0.972059
0.046282 -0.160214 0.971944
0.048625 -0.160195 0.971824
0.050966 -0.160174 0.971699
0.053307 -0.160152 0.971568
0.055647 -0.160130 0.971431
0.057986 -0.160107 0.971289
0.060323 -0.160082 0.971140
0.062660 -0.160057 0.970986
0.065005 -0.160055 0.970977
0.067359 -0.160072 0.971082
0.069674 -0.160002 0.970654
0.072026 -0.160016 0.970738
0.074404 -0.160084 0.971155
0.076805 -0.160199 0.971849
0.079138 -0.160167 0.971657
0.081628 -0.160448 0.973360
0.084037 -0.160556 0.974017
0.086525 -0.160808 0.975542
0.088973 -0.160972 0.976540
0.091420 -0.161126 0.977472
0.093925 -0.161372 0.978965
0.096458 -0.161653 0.980669
0.098996 -0.161927 0.982333
0.101495 -0.162128 0.983553
0.103993 -0.162318 0.984707
0.106508 -0.162525 0.985959
0.108979 -0.162657 0.986760
0.111433 -0.162759 0.987383
0.113900 -0.162875 0.988085
0.116484 -0.163150 0.989752
0.119002 -0.163324 0.990806
0.121166 -0.163014 0.988928
0.115985 -0.153026 0.928337
0.116522 -0.150818 0.914943
0.117817 -0.149655 0.907887
0.119250 -0.148707 0.902132
0.120858 -0.148006 0.897879
0.122504 -0.147377 0.894063
0.124175 -0.146798 0.890553
0.125995 -0.146412 0.888213
0.127594 -0.145788 0.884423
0.129177 -0.145165 0.880645
0.130800 -0.144606 0.877258
0.132557 -0.144212 0.874866
0.134313 -0.143828 0.872536
0.135935 -0.143315 0.869426
0.137700 -0.142968 0.867316
0.139467 -0.142631 0.865276
0.141236 -0.142307 0.863307
0.142982 -0.141970 0.861263
0.144685 -0.141599 0.859014
0.146415 -0.141266 0.856991
0.148135 -0.140932 0.854968
0.149854 -0.140607 0.852995
0.151846 -0.140543 0.852606
0.153540 -0.140209 0.850580
0.155239 -0.139888 0.848632
0.157207 -0.139814 0.848185
0.158884 -0.139487 0.846203
0.160851 -0.139421 0.845797
0.162504 -0.139086 0.843766
0.164466 -0.139021 0.843374
0.166353 -0.138895 0.842609
0.168062 -0.138625 0.840972
0.169940 -0.138500 0.840211
0.171627 -0.138223 0.838534
0.173569 -0.138157 0.838129
0.175513 -0.138093 0.837741
0.177450 -0.138024 0.837328
0.179384 -0.137956 0.836911
0.181350 -0.137913 0.836653
0.183521 -0.138026 0.837338
0.185534 -0.138018 0.837292
0.187508 -0.137982 0.837069
0.189754 -0.138144 0.838055
0.191733 -0.138111 0.837856
0.193976 -0.138268 0.838803
0.195967 -0.138242 0.838650
0.198208 -0.138392 0.839558
0.200518 -0.138587 0.840738
0.202768 -0.138736 0.841644
0.204836 -0.138759 0.841787
0.207074 -0.138896 0.842618
0.209400 -0.139089 0.843786
0.211832 -0.139348 0.845356
0.214182 -0.139548 0.846570
0.216529 -0.139742 0.847748
0.218912 -0.139956 0.849049
0.221270 -0.140151 0.850226
0.223849 -0.140480 0.852223
0.226406 -0.140789 0.854102
0.229033 -0.141136 0.856207
0.231615 -0.141450 0.858109
0.234404 -0.141883 0.860737
0.236923 -0.142146 0.862332
0.239694 -0.142555 0.864814
0.242167 -0.142781 0.866186
0.245009 -0.143219 0.868842
0.247440 -0.143411 0.870006
0.250364 -0.143883 0.872872
0.253249 -0.144326 0.875554
0.256459 -0.144944 0.879308
0.260722 -0.146143 0.886578
0.266103 -0.147944 0.897504
0.331319 -0.182712 1.108429
0.347138 -0.189901 1.152037
0.362406 -0.196677 1.193142
0.372778 -0.200709 1.217603
0.374258 -0.199927 1.212862
0.378177 -0.200451 1.216041
0.378950 -0.199313 1.209134
0.380805 -0.198756 1.205756
0.383726 -0.198760 1.205778
0.387194 -0.199045 1.207508
0.390856 -0.199424 1.209812
0.393823 -0.199447 1.209949
0.396464 -0.199305 1.209085
0.399643 -0.199434 1.209867
0.402298 -0.199301 1.209061
0.404900 -0.199143 1.208107
0.407520 -0.198997 1.207220
0.410514 -0.199035 1.207447
0.413145 -0.198897 1.206611
0.415775 -0.198760 1.205782
0.418709 -0.198770 1.205841
0.421647 -0.198781 1.205911
0.424374 -0.198694 1.205381
0.427250 -0.198677 1.205277
0.430256 -0.198720 1.205541
0.433343 -0.198800 1.206026
0.436777 -0.199037 1.207463
0.440636 -0.199463 1.210049
0.444095 -0.199704 1.211509
0.447494 -0.199914 1.212785
0.450605 -0.199995 1.213273
0.453744 -0.200086 1.213826
0.457537 -0.200463 1.216114
0.461546 -0.200929 1.218941
0.466846 -0.201948 1.225121
0.471386 -0.202627 1.229240
-0.291310 -0.122206 0.752141
-0.290715 -0.122722 0.755318
-0.289118 -0.122819 0.755914
-0.287366 -0.122851 0.756108
-0.285359 -0.122774 0.755633
-0.283239 -0.122646 0.754848
-0.281609 -0.122731 0.755370
-0.280003 -0.122827 0.755961
-0.278393 -0.122923 0.756551
-0.276780 -0.123018 0.757137
-0.275005 -0.123042 0.757287
-0.273385 -0.123137 0.757868
-0.271426 -0.123079 0.757512
-0.269740 -0.123145 0.757919
-0.267909 -0.123145 0.757918
-0.265753 -0.122995 0.756994
-0.263268 -0.122689 0.755114
-0.260942 -0.122454 0.753666
-0.258859 -0.122330 0.752902
-0.256751 -0.122193 0.752057
-0.254854 -0.122154 0.751820
-0.252161 -0.121731 0.749218
-0.255694 -0.124329 0.765209
-0.390931 -0.191472 1.178448
-0.417782 -0.206124 1.268632
-0.379961 -0.188850 1.162311
-0.255265 -0.127818 0.786678
-0.250500 -0.126373 0.777785
-0.247016 -0.125557 0.772764
-0.244003 -0.124970 0.769152
-0.241618 -0.124699 0.767482
-0.239243 -0.124428 0.765813
-0.237367 -0.124414 0.765731
-0.235401 -0.124353 0.765354
-0.233252 -0.124194 0.764373
-0.231172 -0.124068 0.763601
-0.229414 -0.124116 0.763894
-0.227718 -0.124197 0.764396
-0.225577 -0.124036 0.763402
-0.223711 -0.124024 0.763327
-0.221727 -0.123946 0.762847
-0.220024 -0.124025 0.763334
-0.218318 -0.124103 0.763818
-0.216667 -0.124215 0.764505
-0.215176 -0.124421 0.765774
-0.213597 -0.124579 0.766747
-0.212245 -0.124874 0.768558
-0.210560 -0.124976 0.769188
-0.209236 -0.125296 0.771159
-0.207891 -0.125609 0.773085
-0.206803 -0.126084 0.776011
-0.205749 -0.126590 0.779121
-0.205756 -0.127763 0.786340
-0.206963 -0.129710 0.798327
-0.207281 -0.131132 0.807077
-0.207989 -0.132829 0.817523
-0.210095 -0.135461 0.833720
-0.229547 -0.149436 0.919730
-0.246811 -0.162245 0.998570
-0.235434 -0.156295 0.961945
-0.204247 -0.136942 0.842838
-0.199354 -0.135008 0.830934
-0.196587 -0.134488 0.827735
-0.193927 -0.134032 0.824928
-0.191582 -0.133787 0.823416
-0.189020 -0.133383 0.820931
-0.186760 -0.133186 0.819716
-0.183923 -0.132568 0.815917
-0.179772 -0.130980 0.806143
-0.172330 -0.126934 0.781239
-0.169645 -0.126340 0.777584
-0.167731 -0.126314 0.777422
-0.165683 -0.126184 0.776625
-0.163811 -0.126188 0.776647
-0.161861 -0.126130 0.776293
-0.160278 -0.126361 0.777716
-0.158474 -0.126421 0.778085
-0.156666 -0.126480 0.778444
-0.154856 -0.126538 0.778800
-0.153044 -0.126595 0.779152
-0.151229 -0.126652 0.779501
-0.149700 -0.126952 0.781351
-0.148165 -0.127256 0.783221
-0.146420 -0.127384 0.784009
-0.143462 -0.126446 0.778238
-0.126009 -0.112538 0.692637
-0.123179 -0.111492 0.686199
-0.121468 -0.111443 0.685899
-0.119877 -0.111505 0.686279
-0.118480 -0.111751 0.687792
-0.116943 -0.111871 0.688531
-0.115550 -0.112133 0.690146
-0.114292 -0.112536 0.692627
-0.112881 -0.112799 0.694243
-0.111462 -0.113062 0.695859
-0.109831 -0.113113 0.696178
-0.108399 -0.113375 0.697785
-0.107047 -0.113730 0.699970
-0.105760 -0.114167 0.702660
-0.104263 -0.114386 0.704011
-0.102686 -0.114524 0.704861
-0.101162 -0.114728 0.706117
-0.099489 -0.114766 0.706349
-0.097814 -0.114803 0.706577
-0.095983 -0.114655 0.705667
-0.094231 -0.114598 0.705315
-0.092371 -0.114406 0.704134
-0.090609 -0.114329 0.703658
-0.089064 -0.114529 0.704891
-0.087476 -0.114679 0.705817
-0.086063 -0.115070 0.708223
-0.084944 -0.115879 0.713197
-0.083657 -0.116486 0.716935
-0.098442 -0.139972 0.861483
-0.110669 -0.160756 0.989401
-0.105793 -0.157066 0.966693
-0.076369 -0.115941 0.713580
-0.073637 -0.114376 0.703949
-0.071540 -0.113746 0.700071
-0.069607 -0.113352 0.697649
-0.067670 -0.112933 0.695071
-0.065875 -0.112735 0.693850
-0.064085 -0.112536 0.692627
-0.062350 -0.112426 0.691949
-0.060588 -0.112259 0.690922
-0.058931 -0.112282 0.691060
-0.057195 -0.112153 0.690268
-0.055503 -0.112105 0.689972
-0.053846 -0.112125 0.690096
-0.052125 -0.112010 0.689387
-0.050430 -0.111945 0.688987
-0.048773 -0.111963 0.689098
-0.047116 -0.111981 0.689208
-0.045457 -0.111998 0.689312
-0.043813 -0.112052 0.689646
-0.042220 -0.112249 0.690859
-0.040612 -0.112419 0.691901
-0.038968 -0.112498 0.692392
-0.037358 -0.112688 0.693557
-0.035752 -0.112909 0.694918
-0.034144 -0.113145 0.696372
-0.032544 -0.113433 0.698143
-0.030872 -0.113488 0.698484
-0.029358 -0.114160 0.702620
-0.028700 -0.118455 0.729052
-0.028155 -0.123802 0.761965
-0.026607 -0.125182 0.770453
-0.024902 -0.125974 0.775334
-0.023175 -0.126775 0.780259
-0.021683 -0.129114 0.794656
-0.024095 -0.157421 0.968879
-0.021967 -0.158959 0.978341
-0.019579 -0.158768 0.977167
-0.017219 -0.158774 0.977203
-0.014858 -0.158779 0.977234
-0.012497 -0.158783 0.977259
-0.010117 -0.158487 0.975439
-0.007745 -0.158180 0.973548
-0.005390 -0.158094 0.973019
-0.003034 -0.157862 0.971594
-0.000685 -0.157554 0.969696
0.001658 -0.157553 0.969687
0.004001 -0.157550 0.969673
0.006344 -0.157547 0.969653
0.008686 -0.157543 0.969628
0.011029 -0.157538 0.969597
0.013371 -0.157532 0.969561
0.015713 -0.157525 0.969519
0.018055 -0.157517 0.969471
0.020396 -0.157509 0.969418
0.022737 -0.157499 0.969359
0.025076 -0.157478 0.969227
0.027404 -0.157400 0.968745
0.029757 -0.157465 0.969150
0.032096 -0.157452 0.969068
0.034444 -0.157482 0.969251
0.036830 -0.157669 0.970401
0.039170 -0.157649 0.970278
0.041446 -0.157390 0.968689
0.043782 -0.157373 0.968580
0.046117 -0.157354 0.968466
0.048451 -0.157335 0.968346
0.050784 -0.157314 0.968221
0.053116 -0.157293 0.968090
0.055448 -0.157271 0.967954
0.057807 -0.157326 0.968293
0.060225 -0.157531 0.969556
0.062558 -0.157506 0.969402
0.064889 -0.157481 0.969245
0.067220 -0.157454 0.969079
0.069549 -0.157427 0.968912
0.071877 -0.157398 0.968735
0.074204 -0.157369 0.968557
0.076530 -0.157338 0.968369
0.078920 -0.157439 0.968988
0.081336 -0.157583 0.969875
0.083825 -0.157858 0.971565
0.086233 -0.157968 0.972244
0.088655 -0.158098 0.973043
0.091163 -0.158371 0.974725
0.093612 -0.158529 0.975699
0.096136 -0.158804 0.977391
0.098645 -0.159042 0.978856
0.101078 -0.159149 0.979513
0.103621 -0.159420 0.981180
0.106138 -0.159640 0.982532
0.108623 -0.159803 0.983540
0.111045 -0.159869 0.983946
0.113553 -0.160052 0.985073
0.116077 -0.160252 0.986299
0.118575 -0.160407 0.987256
0.120675 -0.160028 0.984924
0.115451 -0.150140 0.924066
0.116275 -0.148342 0.913000
0.117748 -0.147425 0.907355
0.119198 -0.146513 0.901740
0.120844 -0.145868 0.897774
0.122490 -0.145248 0.893958
0.124183 -0.144704 0.890610
0.126026 -0.144351 0.888434
0.127643 -0.143753 0.884757
0.129419 -0.143353 0.882296
0.131248 -0.143023 0.880260
0.132916 -0.142530 0.877231
0.134720 -0.142198 0.875182
0.136422 -0.141769 0.872545
0.138207 -0.141438 0.870508
0.139982 -0.141107 0.868471
0.141810 -0.140839 0.866818
0.143567 -0.140509 0.864787
0.145315 -0.140178 0.862755
0.147052 -0.139848 0.860723
0.148780 -0.139518 0.858691
0.150519 -0.139208 0.856783
0.152231 -0.138881 0.854767
0.154209 -0.138802 0.854283
0.155901 -0.138471 0.852248
0.157593 -0.138150 0.850271
0.159570 -0.138083 0.849858
0.161238 -0.137754 0.847832
0.163211 -0.137689 0.847436
0.164861 -0.137358 0.845397
0.166828 -0.137296 0.845014
0.168464 -0.136966 0.842983
0.170420 -0.136901 0.842584
0.172368 -0.136831 0.842154
0.174238 -0.136702 0.841357
0.176189 -0.136638 0.840967
0.177874 -0.136372 0.839329
0.180074 -0.136503 0.840133
0.182103 -0.136502 0.840128
0.184039 -0.136433 0.839700
0.186019 -0.136396 0.839478
0.188275 -0.136562 0.840496
0.190273 -0.136538 0.840348
0.192510 -0.136685 0.841254
0.194497 -0.136652 0.841054
0.196754 -0.136809 0.842018
0.198769 -0.136796 0.841935
0.201067 -0.136975 0.843039
0.203317 -0.137119 0.843924
0.205568 -0.137260 0.844794
0.207652 -0.137289 0.844968
0.210019 -0.137501 0.846277
0.212365 -0.137697 0.847482
0.214722 -0.137895 0.848703
0.217075 -0.138088 0.849888
0.219644 -0.138413 0.851888
0.222006 -0.138602 0.853054
0.224563 -0.138909 0.854942
0.226940 -0.139099 0.856114
0.229700 -0.139520 0.858700
0.232161 -0.139752 0.860129
0.234947 -0.140174 0.862729
0.237368 -0.140373 0.863954
0.240042 -0.140717 0.866069
0.242455 -0.140903 0.867217
0.245097 -0.141218 0.869152
0.247528 -0.141407 0.870317
0.250392 -0.141838 0.872970
0.252899 -0.142062 0.874344
0.255722 -0.142457 0.876781
0.259599 -0.143429 0.882762
0.268324 -0.147041 0.904994
0.291366 -0.158377 0.974764
0.305380 -0.164664 1.013458
0.311391 -0.166570 1.025186
0.315250 -0.167303 1.029698
0.318597 -0.167755 1.032482
0.346729 -0.181150 1.114921
0.378071 -0.196001 1.206328
0.382941 -0.197008 1.212520
0.388477 -0.198338 1.220710
0.389282 -0.197252 1.214022
0.393294 -0.197794 1.217359
0.395216 -0.197285 1.214227
0.397232 -0.196830 1.211430
0.400432 -0.196964 1.212255
0.402436 -0.196513 1.209474
0.404541 -0.196116 1.207034
0.406954 -0.195874 1.205543
0.409792 -0.195838 1.205324
0.412468 -0.195726 1.204634
0.415012 -0.195553 1.203569
0.417591 -0.195399 1.202622
0.420265 -0.195291 1.201957
0.423017 -0.195221 1.201527
0.425754 -0.195145 1.201058
0.429103 -0.195349 1.202311
0.432525 -0.195582 1.203747
0.436046 -0.195858 1.205443
0.439779 -0.196223 1.207693
0.443365 -0.196520 1.209517
0.446846 -0.196765 1.211030
0.449872 -0.196809 1.211299
0.453427 -0.197082 1.212979
0.457338 -0.197506 1.215586
0.461702 -0.198118 1.219352
0.467003 -0.199122 1.225533
0.472138 -0.200043 1.231200
-0.292825 -0.121057 0.756054
-0.291794 -0.121388 0.758121
-0.289622 -0.121245 0.757231
-0.287476 -0.121112 0.756399
-0.285876 -0.121208 0.757001
-0.283865 -0.121131 0.756518
-0.282124 -0.121168 0.756751
-0.281016 -0.121480 0.758696
-0.279239 -0.121504 0.758849
-0.277274 -0.121447 0.758490
-0.275633 -0.121531 0.759017
-0.274009 -0.121624 0.759600
-0.272003 -0.121548 0.759123
-0.270374 -0.121640 0.759700
-0.268591 -0.121664 0.759848
-0.266556 -0.121573 0.759280
-0.264177 -0.121323 0.757721
-0.261590 -0.120974 0.755536
-0.259283 -0.120749 0.754135
-0.256572 -0.120333 0.751533
-0.254193 -0.120067 0.749872
-0.251089 -0.119452 0.746033
-0.247961 -0.118817 0.742064
-0.313853 -0.151486 0.946099
-0.412994 -0.200800 1.254091
-0.364382 -0.178474 1.114655
-0.256370 -0.126505 0.790082
-0.250584 -0.124578 0.778047
-0.247050 -0.123749 0.772872
-0.243955 -0.123130 0.769003
-0.241481 -0.122817 0.767046
-0.239324 -0.122661 0.766073
-0.237634 -0.122744 0.766594
-0.235481 -0.122587 0.765615
-0.233648 -0.122597 0.765672
-0.231638 -0.122512 0.765143
-0.229796 -0.122516 0.765166
-0.227864 -0.122471 0.764886
-0.226096 -0.122514 0.765156
-0.223947 -0.122350 0.764134
-0.222237 -0.122425 0.764601
-0.220530 -0.122503 0.765089
-0.218820 -0.122581 0.765575
-0.217107 -0.122658 0.766057
-0.215391 -0.122735 0.766536
-0.213907 -0.122947 0.767860
-0.212363 -0.123127 0.768984
-0.210876 -0.123344 0.770343
-0.209556 -0.123664 0.772336
-0.208213 -0.123976 0.774284
-0.206875 -0.124295 0.776280
-0.205928 -0.124859 0.779799
-0.205631 -0.125830 0.785865
-0.206053 -0.127263 0.794816
-0.206360 -0.128652 0.803492
-0.207473 -0.130574 0.815497
-0.209979 -0.133419 0.833261
-0.239200 -0.153456 0.958406
-0.248924 -0.161256 1.007120
-0.249249 -0.163061 1.018390
-0.212770 -0.140584 0.878009
-0.199411 -0.133084 0.831171
-0.196485 -0.132465 0.827307
-0.194081 -0.132189 0.825584
-0.191809 -0.131999 0.824395
-0.189408 -0.131714 0.822615
-0.186931 -0.131370 0.820466
-0.184316 -0.130921 0.817664
-0.180797 -0.129813 0.810743
-0.173014 -0.125585 0.784338
-0.169734 -0.124569 0.777992
-0.167538 -0.124334 0.776524
-0.165742 -0.124394 0.776901
-0.163860 -0.124391 0.776878
-0.162143 -0.124514 0.777648
-0.160327 -0.124563 0.777952
-0.158531 -0.124629 0.778363
-0.156722 -0.124686 0.778722
-0.154912 -0.124743 0.779078
-0.153098 -0.124800 0.779431
-0.151368 -0.124926 0.780218
-0.149470 -0.124915 0.780154
-0.148508 -0.125697 0.785033
-0.142034 -0.121772 0.760523
-0.125921 -0.109373 0.683082
-0.124010 -0.109143 0.681650
-0.122653 -0.109402 0.683265
-0.121275 -0.109649 0.684807
-0.119835 -0.109846 0.686039
-0.118252 -0.109915 0.686468
-0.116869 -0.110175 0.688097
-0.115533 -0.110488 0.690047
-0.114080 -0.110696 0.691345
-0.112728 -0.111009 0.693299
-0.111451 -0.111407 0.695791
-0.109890 -0.111529 0.696549
-0.108470 -0.111800 0.698245
-0.107242 -0.112281 0.701245
-0.105953 -0.112712 0.703940
-0.104492 -0.112972 0.705559
-0.103023 -0.113230 0.707176
-0.101441 -0.113372 0.708062
-0.099826 -0.113482 0.708745
-0.098047 -0.113404 0.708262
-0.096460 -0.113550 0.709175
-0.094683 -0.113475 0.708705
-0.092939 -0.113436 0.708461
-0.091135 -0.113321 0.707745
-0.089401 -0.113291 0.707557
-0.087743 -0.113358 0.707973
-0.086151 -0.113514 0.708945
-0.084643 -0.113790 0.710673
-0.084027 -0.115301 0.720111
-0.086261 -0.120870 0.754887
-0.102966 -0.147393 0.920537
-0.098621 -0.144289 0.901153
-0.076155 -0.113936 0.711581
-0.073535 -0.112557 0.702971
-0.071443 -0.111942 0.699128
-0.069496 -0.111528 0.696544
-0.067695 -0.111333 0.695326
-0.065836 -0.111032 0.693448
-0.064092 -0.110912 0.692699
-0.062324 -0.110746 0.691659
-0.060611 -0.110669 0.691177
-0.058952 -0.110691 0.691315
-0.057181 -0.110496 0.690098
-0.055524 -0.110516 0.690226
-0.053866 -0.110536 0.690350
-0.052207 -0.110556 0.690471
-0.050459 -0.110382 0.689386
-0.048791 -0.110377 0.689353
-0.047150 -0.110435 0.689715
-0.045491 -0.110452 0.689825
-0.043900 -0.110643 0.691017
-0.042236 -0.110659 0.691114
-0.040634 -0.110844 0.692272
-0.038998 -0.110949 0.692927
-0.037387 -0.111135 0.694088
-0.035784 -0.111365 0.695527
-0.034188 -0.111643 0.697260
-0.032570 -0.111874 0.698702
-0.030932 -0.112056 0.699838
-0.029338 -0.112426 0.702153
-0.028418 -0.115583 0.721867
-0.028034 -0.121477 0.758678
-0.026520 -0.122960 0.767942
-0.024854 -0.123901 0.773818
-0.023153 -0.124813 0.779515
-0.021700 -0.127338 0.795285
-0.023979 -0.154385 0.964203
-0.021856 -0.155858 0.973406
-0.019509 -0.155898 0.973656
-0.017157 -0.155904 0.973692
-0.014812 -0.155990 0.974229
-0.012453 -0.155918 0.973780
-0.010081 -0.155626 0.971957
-0.007717 -0.155321 0.970050
-0.005363 -0.155015 0.968142
-0.003023 -0.155009 0.968104
-0.000683 -0.154706 0.966212
0.001652 -0.154705 0.966203
0.003981 -0.154487 0.964844
0.006320 -0.154691 0.966115
0.008655 -0.154695 0.966144
0.010989 -0.154691 0.966114
0.013323 -0.154685 0.966077
0.015657 -0.154678 0.966035
0.017990 -0.154670 0.965988
0.020323 -0.154662 0.965935
0.022655 -0.154653 0.965876
0.024988 -0.154642 0.965812
0.027319 -0.154631 0.965743
0.029650 -0.154619 0.965668
0.031984 -0.154622 0.965682
0.034378 -0.154895 0.967388
0.036671 -0.154708 0.966222
0.039045 -0.154864 0.967198
0.041320 -0.154632 0.965749
0.043649 -0.154615 0.965640
0.045977 -0.154596 0.965526
0.048304 -0.154577 0.965406
0.050622 -0.154533 0.965131
0.052955 -0.154536 0.965151
0.055303 -0.154580 0.965423
0.057683 -0.154707 0.966219
0.060008 -0.154684 0.966071
0.062333 -0.154659 0.965918
0.064656 -0.154634 0.965761
0.066978 -0.154608 0.965595
0.069299 -0.154581 0.965429
0.071619 -0.154553 0.965252
0.073938 -0.154524 0.965075
0.076255 -0.154494 0.964888
0.078724 -0.154766 0.966583
0.081113 -0.154868 0.967220
0.083545 -0.155043 0.968318
0.086035 -0.155315 0.970012
0.088509 -0.155543 0.971439
0.090923 -0.155657 0.972152
0.093343 -0.155776 0.972894
0.095858 -0.156043 0.974563
0.098316 -0.156208 0.975593
0.100821 -0.156437 0.977021
0.103248 -0.156538 0.977650
0.105789 -0.156803 0.979308
0.108214 -0.156888 0.979835
0.110724 -0.157090 0.981102
0.113226 -0.157272 0.982236
0.115794 -0.157537 0.983892
0.118297 -0.157705 0.984940
0.120395 -0.157336 0.982634
0.115495 -0.148014 0.924418
0.116205 -0.146098 0.912448
0.117556 -0.145045 0.905875
0.119004 -0.144148 0.900268
0.120644 -0.143511 0.896291
0.122337 -0.142958 0.892839
0.124112 -0.142519 0.890098
0.125824 -0.142024 0.887008
0.127671 -0.141696 0.884956
0.129411 -0.141261 0.882238
0.131238 -0.140934 0.880196
0.133058 -0.140609 0.878171
0.134715 -0.140126 0.875150
0.136508 -0.139797 0.873095
0.138516 -0.139694 0.872451
0.140295 -0.139368 0.870415
0.142068 -0.139044 0.868395
0.143839 -0.138729 0.866425
0.145685 -0.138493 0.864955
0.147425 -0.138165 0.862903
0.149342 -0.138010 0.861934
0.151154 -0.137763 0.860395
0.152885 -0.137450 0.858441
0.154588 -0.137121 0.856386
0.156577 -0.137051 0.855946
0.158266 -0.136724 0.853903
0.159955 -0.136404 0.851905
0.161936 -0.136339 0.851498
0.163599 -0.136011 0.849452
0.165574 -0.135948 0.849056
0.167227 -0.135624 0.847034
0.169194 -0.135561 0.846638
0.171050 -0.135410 0.845701
0.172783 -0.135167 0.844182
0.174738 -0.135102 0.843774
0.176695 -0.135039 0.843383
0.178645 -0.134973 0.842967
0.180591 -0.134905 0.842546
0.182568 -0.134862 0.842272
0.184748 -0.134967 0.842933
0.186783 -0.134966 0.842928
0.188783 -0.134940 0.842763
0.191030 -0.135089 0.843695
0.193039 -0.135068 0.843563
0.195281 -0.135210 0.844447
0.197519 -0.135345 0.845293
0.199605 -0.135374 0.845473
0.201867 -0.135521 0.846393
0.204112 -0.135654 0.847223
0.206206 -0.135685 0.847418
0.208467 -0.135824 0.848283
0.210808 -0.136012 0.849458
0.213158 -0.136202 0.850646
0.215436 -0.136343 0.851524
0.217875 -0.136582 0.853019
0.220155 -0.136718 0.853869
0.222632 -0.136973 0.855459
0.225009 -0.137162 0.856641
0.227392 -0.137351 0.857820
0.229975 -0.137656 0.859726
0.232573 -0.137966 0.861658
0.235028 -0.138185 0.863027
0.237450 -0.138381 0.864252
0.240049 -0.138676 0.866096
0.242465 -0.138861 0.867250
0.244958 -0.139087 0.868660
0.247546 -0.139362 0.870382
0.250050 -0.139586 0.871777
0.252666 -0.139868 0.873541
0.255110 -0.140051 0.874684
0.258015 -0.140482 0.877375
0.268835 -0.145180 0.906717
0.296221 -0.158677 0.991008
0.306146 -0.162678 1.015998
0.311106 -0.163999 1.024247
0.314643 -0.164554 1.027715
0.317749 -0.164877 1.029734
0.319745 -0.164624 1.028152
0.321612 -0.164308 1.026181
0.323378 -0.163947 1.023922
0.332087 -0.167084 1.043516
0.369933 -0.184723 1.153679
0.391938 -0.194247 1.213163
0.401833 -0.197673 1.234558
0.407296 -0.198884 1.242119
0.403405 -0.195543 1.221255
0.404488 -0.194644 1.215642
0.405751 -0.193844 1.210646
0.407075 -0.193084 1.205901
0.409125 -0.192678 1.203360
0.411787 -0.192563 1.202644
0.414003 -0.192243 1.200643
0.416191 -0.191914 1.198588
0.419008 -0.191878 1.198364
0.421637 -0.191757 1.197608
0.424574 -0.191776 1.197729
0.427707 -0.191883 1.198399
0.431333 -0.192209 1.200431
0.434913 -0.192509 1.202308
0.438718 -0.192905 1.204782
0.442199 -0.193154 1.206335
0.445981 -0.193530 1.208685
0.449118 -0.193624 1.209270
0.452985 -0.194029 1.211798
0.457040 -0.194508 1.214792
0.461836 -0.195295 1.219707
0.467283 -0.196345 1.226266
0.472975 -0.197485 1.233384
-0.292735 -0.119234 0.755821
-0.291323 -0.119404 0.756896
-0.289164 -0.119268 0.756034
-0.287567 -0.119363 0.756639
-0.285768 -0.119376 0.756715
-0.283807 -0.119320 0.756362
-0.282202 -0.119414 0.756959
-0.280593 -0.119508 0.757552
-0.278980 -0.119601 0.758144
-0.277363 -0.119694 0.758732
-0.275721 -0.119777 0.759260
-0.274097 -0.119869 0.759844
-0.272470 -0.119961 0.760425
-0.270669 -0.119977 0.760528
-0.268941 -0.120026 0.760839
-0.266776 -0.119879 0.759907
-0.264263 -0.119573 0.757965
-0.261561 -0.119176 0.755452
-0.258781 -0.118738 0.752677
-0.256397 -0.118477 0.751021
-0.252197 -0.117367 0.743982
-0.249266 -0.116836 0.740616
-0.246910 -0.116568 0.738919
-0.257988 -0.122686 0.777697
-0.357085 -0.171057 1.084320
-0.339049 -0.163617 1.037160
-0.257374 -0.125128 0.793178
-0.250614 -0.122755 0.778137
-0.247010 -0.121905 0.772746
-0.243559 -0.121117 0.767755
-0.241089 -0.120809 0.765801
-0.239403 -0.120892 0.766326
-0.237713 -0.120974 0.766847
-0.236019 -0.121056 0.767365
-0.233865 -0.120900 0.766382
-0.231715 -0.120745 0.765396
-0.230018 -0.120825 0.765903
-0.228110 -0.120795 0.765710
-0.226171 -0.120747 0.765411
-0.224245 -0.120706 0.765150
-0.222311 -0.120660 0.764856
-0.220604 -0.120737 0.765345
-0.218893 -0.120814 0.765831
-0.217180 -0.120890 0.766314
-0.215463 -0.120965 0.766793
-0.214161 -0.121277 0.768769
-0.212434 -0.121352 0.769243
-0.210947 -0.121566 0.770602
-0.209626 -0.121881 0.772596
-0.208284 -0.122188 0.774545
-0.206944 -0.122503 0.776542
-0.205998 -0.123059 0.780063
-0.205701 -0.124016 0.786131
-0.205529 -0.125068 0.792797
-0.205211 -0.126049 0.799018
-0.206756 -0.128204 0.812676
-0.221687 -0.138780 0.879719
-0.251136 -0.158738 1.006231
-0.250965 -0.160180 1.015375
-0.252350 -0.162654 1.031057
-0.238312 -0.155138 0.983412
-0.199483 -0.131169 0.831471
-0.196462 -0.130496 0.827210
-0.194483 -0.130510 0.827294
-0.192284 -0.130374 0.826434
-0.189846 -0.130071 0.824516
-0.187255 -0.129657 0.821892
-0.184637 -0.129215 0.819085
-0.181695 -0.128534 0.814769
-0.174793 -0.125006 0.792405
-0.169870 -0.122830 0.778615
-0.167607 -0.122551 0.776845
-0.165799 -0.122602 0.777170
-0.164001 -0.122662 0.777546
-0.162199 -0.122720 0.777918
-0.160396 -0.122778 0.778286
-0.158586 -0.122833 0.778633
-0.156777 -0.122890 0.778993
-0.154965 -0.122946 0.779349
-0.153153 -0.123003 0.779707
-0.151335 -0.123057 0.780049
-0.149420 -0.123032 0.779892
-0.146039 -0.121784 0.771980
-0.128193 -0.108285 0.686413
-0.125313 -0.107240 0.679786
-0.123816 -0.107365 0.680583
-0.122456 -0.107615 0.682167
-0.121012 -0.107797 0.683322
-0.119426 -0.107857 0.683698
-0.118037 -0.108097 0.685220
-0.116655 -0.108351 0.686834
-0.115264 -0.108605 0.688438
-0.113867 -0.108859 0.690054
-0.112487 -0.109138 0.691823
-0.111146 -0.109464 0.693883
-0.109726 -0.109720 0.695510
-0.108509 -0.110190 0.698492
-0.107280 -0.110664 0.701493
-0.105991 -0.111089 0.704189
-0.104578 -0.111397 0.706141
-0.103158 -0.111707 0.708107
-0.101581 -0.111854 0.709038
-0.100000 -0.112002 0.709977
-0.098367 -0.112096 0.710573
-0.096723 -0.112182 0.711114
-0.094908 -0.112067 0.710388
-0.093200 -0.112077 0.710453
-0.091453 -0.112040 0.710218
-0.089707 -0.112003 0.709979
-0.087767 -0.111716 0.708165
-0.085622 -0.111154 0.704597
-0.083736 -0.110910 0.703052
-0.082849 -0.112008 0.710014
-0.084053 -0.116039 0.735564
-0.096331 -0.135861 0.861216
-0.094481 -0.136195 0.863332
-0.075973 -0.111988 0.709884
-0.073415 -0.110716 0.701826
-0.071469 -0.110330 0.699378
-0.069521 -0.109922 0.696793
-0.067698 -0.109696 0.695359
-0.065860 -0.109434 0.693697
-0.064072 -0.109244 0.692491
-0.062346 -0.109152 0.691907
-0.060632 -0.109076 0.691425
-0.058973 -0.109097 0.691563
-0.057202 -0.108905 0.690346
-0.055544 -0.108926 0.690474
-0.053885 -0.108945 0.690598
-0.052226 -0.108964 0.690719
-0.050546 -0.108940 0.690567
-0.048828 -0.108831 0.689877
-0.047172 -0.108855 0.690029
-0.045549 -0.108963 0.690713
-0.043916 -0.109051 0.691266
-0.042251 -0.109066 0.691363
-0.040666 -0.109294 0.692808
-0.039051 -0.109461 0.693868
-0.037400 -0.109535 0.694338
-0.035796 -0.109762 0.695778
-0.034186 -0.109989 0.697216
-0.032617 -0.110381 0.699699
-0.030959 -0.110496 0.700431
-0.029372 -0.110895 0.702958
-0.028229 -0.113122 0.717073
-0.027865 -0.118964 0.754107
-0.026402 -0.120607 0.764524
-0.024820 -0.121910 0.772781
-0.023157 -0.122992 0.779637
-0.021898 -0.126608 0.802564
-0.023922 -0.151744 0.961897
-0.021777 -0.153006 0.969899
-0.019439 -0.153046 0.970148
-0.017095 -0.153051 0.970184
-0.014760 -0.153145 0.970777
-0.012408 -0.153066 0.970276
-0.010051 -0.152869 0.969031
-0.007694 -0.152571 0.967138
-0.005354 -0.152470 0.966499
-0.003012 -0.152174 0.964621
-0.000681 -0.151970 0.963332
0.001647 -0.151969 0.963323
0.003974 -0.151967 0.963309
0.006302 -0.151964 0.963290
0.008629 -0.151960 0.963264
0.010956 -0.151955 0.963234
0.013301 -0.152151 0.964479
0.015631 -0.152145 0.964437
0.017960 -0.152137 0.964389
0.020286 -0.152105 0.964188
0.022614 -0.152094 0.964113
0.024913 -0.151907 0.962933
0.027238 -0.151896 0.962864
0.029569 -0.151918 0.963001
0.031932 -0.152091 0.964095
0.034276 -0.152155 0.964504
0.036603 -0.152141 0.964412
0.038929 -0.152125 0.964315
0.041255 -0.152109 0.964212
0.043579 -0.152092 0.964103
0.045875 -0.151979 0.963388
0.048197 -0.151960 0.963268
0.050518 -0.151941 0.963144
0.052838 -0.151920 0.963014
0.055157 -0.151899 0.962878
0.057475 -0.151876 0.962737
0.059792 -0.151853 0.962589
0.062108 -0.151829 0.962436
0.064437 -0.151838 0.962492
0.066737 -0.151778 0.962115
0.069066 -0.151788 0.962176
0.071405 -0.151819 0.962373
0.073717 -0.151791 0.962196
0.076069 -0.151846 0.962541
0.078461 -0.151974 0.963356
0.080909 -0.152200 0.964786
0.083385 -0.152465 0.966467
0.085809 -0.152622 0.967465
0.088301 -0.152889 0.969157
0.090685 -0.152961 0.969610
0.093127 -0.153123 0.970640
0.095512 -0.153188 0.971048
0.098026 -0.153450 0.972714
0.100457 -0.153574 0.973497
0.102987 -0.153839 0.975177
0.105408 -0.153933 0.975775
0.107947 -0.154193 0.977421
0.110320 -0.154209 0.977521
0.112872 -0.154468 0.979166
0.115526 -0.154855 0.981616
0.118091 -0.155108 0.983222
0.120370 -0.154983 0.982431
0.116292 -0.146837 0.930794
0.116270 -0.144024 0.912964
0.117487 -0.142822 0.905342
0.118932 -0.141936 0.899723
0.120519 -0.141248 0.895361
0.122161 -0.140647 0.891555
0.123964 -0.140250 0.889038
0.125641 -0.139727 0.885720
0.127465 -0.139381 0.883528
0.129300 -0.139058 0.881480
0.131124 -0.138735 0.879431
0.132904 -0.138375 0.877155
0.134711 -0.138055 0.875121
0.136507 -0.137734 0.873088
0.138326 -0.137445 0.871254
0.140271 -0.137288 0.870264
0.142118 -0.137042 0.868701
0.143905 -0.136745 0.866819
0.145835 -0.136591 0.865843
0.147659 -0.136344 0.864277
0.149422 -0.136048 0.862399
0.151418 -0.135968 0.861895
0.153158 -0.135665 0.859972
0.155148 -0.135588 0.859485
0.156854 -0.135269 0.857463
0.158649 -0.135033 0.855964
0.160642 -0.134970 0.855566
0.162536 -0.134826 0.854654
0.164307 -0.134585 0.853128
0.166185 -0.134437 0.852187
0.167947 -0.134200 0.850684
0.169811 -0.134048 0.849724
0.171564 -0.133814 0.848240
0.173422 -0.133666 0.847305
0.175152 -0.133424 0.845771
0.177113 -0.133362 0.845378
0.179092 -0.133315 0.845076
0.181259 -0.133407 0.845662
0.183324 -0.133423 0.845764
0.185274 -0.133355 0.845333
0.187474 -0.133467 0.846043
0.189538 -0.133482 0.846132
0.191758 -0.133604 0.846907
0.193801 -0.133602 0.846894
0.196028 -0.133725 0.847674
0.198130 -0.133761 0.847905
0.200403 -0.133911 0.848857
0.202612 -0.134016 0.849519
0.204680 -0.134025 0.849579
0.206926 -0.134151 0.850374
0.209236 -0.134315 0.851415
0.211387 -0.134374 0.851792
0.213661 -0.134510 0.852653
0.215934 -0.134643 0.853495
0.218252 -0.134801 0.854497
0.220618 -0.134985 0.855664
0.222989 -0.135169 0.856829
0.225275 -0.135299 0.857652
0.227469 -0.135371 0.858109
0.229857 -0.135557 0.859286
0.232434 -0.135850 0.861143
0.234916 -0.136082 0.862616
0.237466 -0.136349 0.864311
0.239943 -0.136570 0.865712
0.242361 -0.136754 0.866879
0.244958 -0.137035 0.868661
0.247384 -0.137217 0.869809
0.250057 -0.137531 0.871801
0.252328 -0.137621 0.872370
0.254526 -0.137669 0.872679
0.258179 -0.138498 0.877932
0.272754 -0.145124 0.919935
0.302242 -0.159514 1.011151
0.306256 -0.160337 1.016365
0.309365 -0.160676 1.018516
0.312253 -0.160896 1.019910
0.315290 -0.161188 1.021765
0.317739 -0.161178 1.021701
0.320300 -0.161225 1.021995
0.322796 -0.161238 1.022080
0.324997 -0.161105 1.021237
0.326686 -0.160722 1.018808
0.328539 -0.160424 1.016923
0.330811 -0.160335 1.016356
0.340137 -0.163640 1.037308
0.378487 -0.180759 1.145819
0.394016 -0.186808 1.184169
0.411202 -0.193551 1.226910
0.409497 -0.191369 1.213075
0.409832 -0.190164 1.205442
0.411826 -0.189741 1.202759
0.413109 -0.188998 1.198051
0.415579 -0.188805 1.196827
0.418050 -0.188615 1.195624
0.420621 -0.188473 1.194720
0.423599 -0.188514 1.194978
0.426577 -0.188554 1.195231
0.429935 -0.188760 1.196541
0.433630 -0.189110 1.198761
0.437439 -0.189506 1.201268
0.441031 -0.189803 1.203150
0.444518 -0.190051 1.204721
0.447932 -0.190264 1.206076
0.452230 -0.190848 1.209778
0.457013 -0.191628 1.214719
0.461686 -0.192352 1.219310
0.467895 -0.193703 1.227872
0.473736 -0.194885 1.235367
-0.292239 -0.117251 0.754540
-0.290847 -0.117425 0.755661
-0.289251 -0.117518 0.756263
-0.287099 -0.117385 0.755406
-0.285501 -0.117479 0.756008
-0.283899 -0.117572 0.756607
-0.282293 -0.117665 0.757204
-0.280684 -0.117757 0.757798
-0.279424 -0.117998 0.759350
-0.277453 -0.117940 0.758979
-0.275811 -0.118022 0.759508
-0.273976 -0.118022 0.759507
-0.272027 -0.117973 0.759189
-0.270398 -0.118063 0.759767
-0.268241 -0.117922 0.758858
-0.266509 -0.117966 0.759147
-0.263834 -0.117592 0.756735
-0.260844 -0.117070 0.753381
-0.256694 -0.116018 0.746607
-0.253195 -0.115246 0.741641
-0.249588 -0.114414 0.736285
-0.247630 -0.114331 0.735755
-0.245595 -0.114212 0.734985
-0.247981 -0.116161 0.747530
-0.296789 -0.140044 0.901224
-0.311227 -0.147943 0.952054
-0.257834 -0.123475 0.794595
-0.249859 -0.120553 0.775795
-0.246391 -0.119779 0.770810
-0.243474 -0.119262 0.767484
-0.241108 -0.119010 0.765859
-0.239319 -0.119040 0.766056
-0.237793 -0.119203 0.767105
-0.235975 -0.119221 0.767220
-0.233944 -0.119131 0.766640
-0.231793 -0.118978 0.765655
-0.230096 -0.119057 0.766162
-0.228187 -0.119027 0.765970
-0.226248 -0.118980 0.765670
-0.224243 -0.118898 0.765141
-0.222386 -0.118894 0.765116
-0.220679 -0.118970 0.765606
-0.218897 -0.119007 0.765844
-0.217254 -0.119121 0.766575
-0.215537 -0.119195 0.767055
-0.214052 -0.119401 0.768381
-0.212507 -0.119576 0.769507
-0.211020 -0.119788 0.770867
-0.209698 -0.120098 0.772862
-0.208355 -0.120401 0.774812
-0.207016 -0.120711 0.776810
-0.206069 -0.121258 0.780332
-0.205772 -0.122202 0.786402
-0.205333 -0.123078 0.792040
-0.204610 -0.123798 0.796675
-0.206531 -0.126148 0.811795
-0.241645 -0.149010 0.958919
-0.253306 -0.157713 1.014927
-0.251395 -0.158053 1.017115
-0.252166 -0.160103 1.030306
-0.246138 -0.157834 1.015705
-0.206810 -0.133951 0.862010
-0.197719 -0.129365 0.832501
-0.195353 -0.129131 0.830995
-0.192740 -0.128727 0.828392
-0.189983 -0.128217 0.825112
-0.187343 -0.127776 0.822277
-0.184702 -0.127325 0.819372
-0.182098 -0.126890 0.816574
-0.177339 -0.124928 0.803946
-0.170438 -0.121396 0.781220
-0.167806 -0.120860 0.777767
-0.165858 -0.120810 0.777444
-0.164058 -0.120868 0.777820
-0.162257 -0.120926 0.778192
-0.160452 -0.120983 0.778561
-0.158642 -0.121037 0.778908
-0.156832 -0.121093 0.779268
-0.155020 -0.121149 0.779626
-0.153206 -0.121204 0.779979
-0.151283 -0.121173 0.779783
-0.148881 -0.120753 0.777077
-0.140449 -0.115369 0.742429
-0.127261 -0.105888 0.681419
-0.125191 -0.105532 0.679125
-0.123612 -0.105585 0.679466
-0.122163 -0.105751 0.680540
-0.120590 -0.105814 0.680940
-0.119204 -0.106045 0.682427
-0.117701 -0.106176 0.683270
-0.116254 -0.106363 0.684474
-0.114938 -0.106676 0.686490
-0.113546 -0.106927 0.688107
-0.112277 -0.107304 0.690531
-0.110969 -0.107653 0.692778
-0.109765 -0.108117 0.695760
-0.108548 -0.108580 0.698743
-0.107318 -0.109047 0.701745
-0.106076 -0.109514 0.704756
-0.104820 -0.109984 0.707777
-0.103402 -0.110295 0.709781
-0.101816 -0.110435 0.710680
-0.100132 -0.110471 0.710914
-0.098446 -0.110507 0.711144
-0.096758 -0.110542 0.711371
-0.095069 -0.110576 0.711590
-0.093317 -0.110538 0.711345
-0.091382 -0.110277 0.709665
-0.089311 -0.109839 0.706843
-0.086860 -0.108907 0.700846
-0.084579 -0.108156 0.696014
-0.082285 -0.107358 0.690875
-0.081284 -0.108246 0.696595
-0.081848 -0.111303 0.716267
-0.091238 -0.126752 0.815687
-0.090211 -0.128093 0.824313
-0.075822 -0.110091 0.708469
-0.073389 -0.109021 0.701582
-0.071469 -0.108679 0.699381
-0.069547 -0.108317 0.697047
-0.067744 -0.108127 0.695829
-0.065946 -0.107937 0.694607
-0.064155 -0.107747 0.693383
-0.062392 -0.107597 0.692417
-0.060654 -0.107482 0.691677
-0.058995 -0.107504 0.691815
-0.057239 -0.107346 0.690799
-0.055587 -0.107378 0.691008
-0.053905 -0.107354 0.690851
-0.052245 -0.107373 0.690972
-0.050522 -0.107259 0.690243
-0.048826 -0.107199 0.689853
-0.047167 -0.107216 0.689963
-0.045577 -0.107396 0.691125
-0.043932 -0.107458 0.691519
-0.042287 -0.107524 0.691945
-0.040681 -0.107697 0.693062
-0.039066 -0.107862 0.694122
-0.037414 -0.107935 0.694593
-0.035810 -0.108159 0.696033
-0.034216 -0.108439 0.697834
-0.032629 -0.108769 0.699956
-0.031015 -0.109042 0.701717
-0.029425 -0.109435 0.704242
-0.028165 -0.111175 0.715443
-0.027678 -0.116398 0.749052
-0.026224 -0.118000 0.759361
-0.024822 -0.120092 0.772826
-0.023165 -0.121195 0.779923
-0.022833 -0.130038 0.836831
-0.023949 -0.149645 0.963006
-0.021737 -0.150435 0.968094
-0.019404 -0.150488 0.968430
-0.017067 -0.150512 0.968585
-0.014727 -0.150517 0.968616
-0.012387 -0.150520 0.968641
-0.010027 -0.150235 0.966801
-0.007682 -0.150048 0.965604
-0.005338 -0.149755 0.963713
-0.003008 -0.149649 0.963032
-0.000680 -0.149458 0.961806
0.001644 -0.149457 0.961797
0.003968 -0.149455 0.961783
0.006292 -0.149452 0.961764
0.008616 -0.149448 0.961738
0.010939 -0.149443 0.961708
0.013262 -0.149437 0.961672
0.015605 -0.149620 0.962847
0.017931 -0.149613 0.962800
0.020256 -0.149605 0.962747
0.022552 -0.149406 0.961471
0.024874 -0.149396 0.961407
0.027229 -0.149575 0.962555
0.029556 -0.149580 0.962590
0.031897 -0.149653 0.963061
0.034288 -0.149933 0.964858
0.036616 -0.149918 0.964766
0.038943 -0.149903 0.964669
0.041230 -0.149741 0.963624
0.043510 -0.149578 0.962575
0.045823 -0.149534 0.962294
0.048117 -0.149439 0.961680
0.050417 -0.149367 0.961217
0.052684 -0.149210 0.960210
0.055045 -0.149321 0.960921
0.057308 -0.149167 0.959934
0.059643 -0.149206 0.960185
0.062006 -0.149310 0.960849
0.064317 -0.149285 0.960692
0.066627 -0.149260 0.960527
0.068936 -0.149234 0.960361
0.071243 -0.149207 0.960186
0.073550 -0.149179 0.960009
0.075876 -0.149193 0.960097
0.078311 -0.149412 0.961509
0.080718 -0.149568 0.962512
0.083190 -0.149831 0.964205
0.085670 -0.150095 0.965901
0.088044 -0.150163 0.966338
0.090477 -0.150325 0.967385
0.092853 -0.150387 0.967785
0.095354 -0.150645 0.969444
0.097709 -0.150664 0.969564
0.100186 -0.150866 0.970863
0.102648 -0.151037 0.971965
0.105144 -0.151250 0.973337
0.107559 -0.151338 0.973902
0.110040 -0.151515 0.975040
0.112586 -0.151771 0.976689
0.115197 -0.152101 0.978815
0.117855 -0.152481 0.981260
0.120378 -0.152674 0.982499
0.117888 -0.146624 0.943566
0.116519 -0.142172 0.914919
0.117659 -0.140890 0.906663
0.119031 -0.139928 0.900475
0.120562 -0.139183 0.895684
0.122205 -0.138592 0.891876
0.123832 -0.138004 0.888095
0.125664 -0.137660 0.885880
0.127282 -0.137097 0.882258
0.129113 -0.136778 0.880205
0.130933 -0.136459 0.878153
0.132728 -0.136123 0.875990
0.134548 -0.135824 0.874064
0.136339 -0.135505 0.872011
0.138344 -0.135405 0.871367
0.140121 -0.135089 0.869333
0.141932 -0.134814 0.867565
0.143931 -0.134722 0.866974
0.145682 -0.134405 0.864936
0.147712 -0.134351 0.864585
0.149447 -0.134034 0.862544
0.151472 -0.133981 0.862203
0.153490 -0.133924 0.861840
0.155203 -0.133606 0.859791
0.157212 -0.133548 0.859419
0.159025 -0.133327 0.857996
0.160915 -0.133175 0.857020
0.162910 -0.133114 0.856623
0.164697 -0.132885 0.855152
0.166572 -0.132733 0.854173
0.168346 -0.132504 0.852702
0.170212 -0.132354 0.851732
0.172177 -0.132282 0.851271
0.173942 -0.132060 0.849846
0.175910 -0.131997 0.849435
0.177880 -0.131935 0.849040
0.179843 -0.131870 0.848620
0.181802 -0.131804 0.848197
0.183789 -0.131759 0.847906
0.185948 -0.131837 0.848409
0.188035 -0.131864 0.848578
0.190227 -0.131962 0.849211
0.192311 -0.131983 0.849350
0.194506 -0.132080 0.849974
0.196482 -0.132028 0.849639
0.198793 -0.132200 0.850744
0.200878 -0.132219 0.850867
0.203079 -0.132314 0.851476
0.205230 -0.132374 0.851863
0.207368 -0.132425 0.852191
0.209527 -0.132488 0.852597
0.211659 -0.132533 0.852890
0.214019 -0.132719 0.854082
0.216099 -0.132729 0.854148
0.218328 -0.132829 0.854792
0.220694 -0.133010 0.855959
0.223066 -0.133191 0.857124
0.225163 -0.133207 0.857224
0.227547 -0.133390 0.858404
0.229936 -0.133573 0.859581
0.232330 -0.133756 0.860755
0.234823 -0.133992 0.862274
0.237412 -0.134278 0.864115
0.239818 -0.134456 0.865262
0.242444 -0.134753 0.867175
0.244789 -0.134891 0.868061
0.247296 -0.135115 0.869502
0.249730 -0.135295 0.870662
0.252081 -0.135428 0.871517
0.254702 -0.135703 0.873285
0.257338 -0.135981 0.875074
0.280156 -0.146831 0.944899
0.301458 -0.156719 1.008530
0.304578 -0.157071 1.010795
0.307287 -0.157208 1.011674
0.309996 -0.157342 1.012538
0.312718 -0.157480 1.013430
0.315569 -0.157681 1.014724
0.318501 -0.157919 1.016254
0.321217 -0.158048 1.017080
0.323704 -0.158062 1.017174
0.326183 -0.158072 1.017238
0.328745 -0.158123 1.017563
0.331369 -0.158201 1.018071
0.334261 -0.158406 1.019387
0.336811 -0.158447 1.019651
0.339093 -0.158362 1.019104
0.342340 -0.158726 1.021446
0.381938 -0.175818 1.131438
0.405104 -0.185156 1.191533
0.421239 -0.191173 1.230250
0.418025 -0.188385 1.212307
0.416922 -0.186580 1.200694
0.417913 -0.185731 1.195233
0.420355 -0.185535 1.193966
0.423063 -0.185457 1.193467
0.425973 -0.185468 1.193538
0.429370 -0.185690 1.194968
0.432772 -0.185911 1.196389
0.436558 -0.186293 1.198849
0.440409 -0.186698 1.201453
0.443908 -0.186949 1.203067
0.447485 -0.187229 1.204872
0.452205 -0.187981 1.209710
0.457453 -0.188941 1.215891
0.462895 -0.189969 1.222504
0.469747 -0.191559 1.232733
0.475917 -0.192852 1.241056
-0.291522 -0.115185 0.752688
-0.289944 -0.115281 0.753315
-0.289120 -0.115680 0.755919
-0.286958 -0.115545 0.755037
-0.285033 -0.115504 0.754769
-0.283434 -0.115595 0.755368
-0.281831 -0.115687 0.755964
-0.280224 -0.115778 0.756558
-0.278948 -0.116007 0.758059
-0.277332 -0.116097 0.758648
-0.275856 -0.116248 0.759631
-0.273916 -0.116203 0.759340
-0.272113 -0.116217 0.759430
-0.270484 -0.116306 0.760008
-0.268520 -0.116250 0.759646
-0.265125 -0.115571 0.755206
-0.260491 -0.114337 0.747147
-0.255345 -0.112861 0.737500
-0.251832 -0.112090 0.732463
-0.249477 -0.111828 0.730750
-0.248002 -0.111959 0.731607
-0.246645 -0.112146 0.732828
-0.244834 -0.112128 0.732706
-0.247382 -0.114120 0.745725
-0.275626 -0.128082 0.836961
-0.293287 -0.137296 0.897173
-0.258789 -0.122049 0.797537
-0.247548 -0.117623 0.768620
-0.244812 -0.117203 0.765870
-0.242472 -0.116966 0.764327
-0.240416 -0.116865 0.763664
-0.238805 -0.116979 0.764412
-0.237406 -0.117201 0.765858
-0.235715 -0.117280 0.766376
-0.233945 -0.117321 0.766644
