ply
format ascii 1.0
comment generated by convert_depth_to_ply.py
element vertex 1678
property float x
property float y
property float z
end_header
2.606396 -1.591347 5.451652
1.891796 -1.144794 3.921847
1.904546 -1.142372 3.913550
1.919389 -1.141237 3.909660
1.931300 -1.138393 3.899915
1.942841 -1.135381 3.889598
1.956378 -1.133577 3.883419
1.967753 -1.130562 3.873089
1.981150 -1.128749 3.866877
1.992764 -1.125958 3.857317
2.003664 -1.122813 3.846543
2.013601 -1.119184 3.834111
2.023891 -1.115808 3.822546
2.034643 -1.112740 3.812034
2.043988 -1.108956 3.799072
2.055607 -1.106457 3.790510
2.065171 -1.102899 3.778321
2.076194 -1.100169 3.768970
2.085814 -1.096744 3.757237
2.095034 -1.093163 3.744967
2.105823 -1.090449 3.735668
2.114761 -1.086824 3.723250
2.123634 -1.083220 3.710904
2.132735 -1.079785 3.699139
2.142759 -1.076865 3.689134
2.150786 -1.072991 3.675863
2.159871 -1.069697 3.664578
2.169203 -1.066573 3.653875
2.177666 -1.063068 3.641869
2.185388 -1.059255 3.628805
2.195308 -1.056553 3.619550
2.203863 -1.053237 3.608188
2.212238 -1.049882 3.596694
2.221859 -1.047160 3.587369
2.231249 -1.044367 3.577802
2.239782 -1.041214 3.567000
2.248078 -1.037994 3.555969
2.257713 -1.035432 3.547191
2.267539 -1.032991 3.538828
2.274963 -1.029495 3.526853
2.284070 -1.026802 3.517627
2.292284 -1.023745 3.507156
2.300740 -1.020836 3.497190
2.308873 -1.017822 3.486863
2.318573 -1.015533 3.479021
2.325619 -1.012118 3.467323
2.335886 -1.010139 3.460543
-2.196322 -0.914600 3.180588
-2.171982 -0.910106 3.164960
-2.146391 -0.905028 3.147302
-2.105737 -0.893495 3.107193
-2.042006 -0.871961 3.032306
-2.003026 -0.860788 2.993451
-1.981657 -0.857087 2.980583
-1.971225 -0.858101 2.984107
-1.961925 -0.859622 2.989399
-1.955567 -0.862462 2.999275
-1.947428 -0.864549 3.006531
-1.938355 -0.866246 3.012432
-1.931499 -0.868963 3.021880
-1.923136 -0.871034 3.029083
-1.913710 -0.872648 3.034698
-1.906513 -0.875308 3.043948
-1.898222 -0.877499 3.051567
-1.888690 -0.879143 3.057282
-1.880020 -0.881213 3.064481
-1.873025 -0.884103 3.074533
-1.863496 -0.885830 3.080538
-1.856098 -0.888601 3.090175
-1.846934 -0.890561 3.096990
-1.838082 -0.892701 3.104431
-1.830651 -0.895567 3.114398
-1.820604 -0.897185 3.120027
-1.813017 -0.900049 3.129985
-1.803557 -0.902019 3.136836
-1.794687 -0.904316 3.144823
-1.786338 -0.906911 3.153849
-1.777373 -0.909232 3.161919
-1.768922 -0.911852 3.171032
-1.759564 -0.914043 3.178649
-1.750550 -0.916447 3.187011
-1.740535 -0.918361 3.193667
-1.730038 -0.920049 3.199538
-1.721455 -0.922790 3.209070
-1.711579 -0.924877 3.216326
-1.700560 -0.926374 3.221533
-1.689836 -0.928058 3.227390
-1.680521 -0.930550 3.236057
-1.670782 -0.932847 3.244043
-1.659894 -0.934535 3.249914
-1.650710 -0.937220 3.259249
-1.640305 -0.939251 3.266312
-1.628872 -0.940723 3.271431
-1.619490 -0.943416 3.280796
-1.609130 -0.945580 3.288324
-1.598045 -0.947354 3.294491
-1.587927 -0.949737 3.302780
-1.577475 -0.951962 3.310515
-1.565671 -0.953403 3.315529
-1.556679 -0.956599 3.326643
-1.545099 -0.958249 3.332379
-1.535116 -0.960929 3.341701
-1.524170 -0.963051 3.349081
-1.512568 -0.964796 3.355146
-1.502688 -0.967682 3.365186
-1.492271 -0.970275 3.374203
-1.481831 -0.972905 3.383346
-1.471760 -0.975830 3.393518
-1.461309 -0.978559 3.403009
-1.450396 -0.981031 3.411606
-1.440103 -0.983976 3.421848
-1.429187 -0.986553 3.430809
-1.418227 -0.989151 3.439844
-1.406759 -0.991447 3.447828
-1.394934 -0.993537 3.455095
-1.384602 -0.996746 3.466256
-1.372277 -0.998575 3.472616
-1.361308 -1.001441 3.482582
-1.350129 -1.004214 3.492229
-1.338265 -1.006535 3.500297
-1.327611 -1.009829 3.511752
-1.316302 -1.012693 3.521714
-1.304796 -1.015471 3.531375
-1.293203 -1.018245 3.541022
-1.281125 -1.020699 3.549556
-1.268618 -1.022867 3.557093
-1.256873 -1.025708 3.566974
-1.245127 -1.028619 3.577096
-1.233002 -1.031285 3.586367
-1.220859 -1.034002 3.595817
-1.208265 -1.036403 3.604167
-1.195220 -1.038474 3.611368
-1.181228 -1.039766 3.615860
-1.202800 -1.072812 3.730781
-1.253118 -1.132732 3.939158
-1.240561 -1.136677 3.952875
-1.226742 -1.139559 3.962898
-1.213540 -1.143102 3.975220
-1.199493 -1.145939 3.985087
-1.186081 -1.149473 3.997376
-1.172546 -1.152990 4.009606
-1.157806 -1.155409 4.018019
-1.144068 -1.158916 4.030214
-1.129684 -1.161866 4.040473
-1.115631 -1.165254 4.052255
-1.101628 -1.168801 4.064589
-1.087361 -1.172178 4.076333
-1.072568 -1.175088 4.086452
-1.058642 -1.179061 4.100271
-1.043661 -1.181973 4.110395
-1.030241 -1.186783 4.127122
-1.017508 -1.192565 4.147230
-1.019267 -1.215840 4.228172
-1.034092 -1.255824 4.367220
-1.019031 -1.260319 4.382852
-1.001775 -1.262216 4.389448
-0.986445 -1.266659 4.404897
-0.971996 -1.272428 4.424959
-0.956710 -1.277309 4.441933
-0.941000 -1.281810 4.457588
-0.924457 -1.285341 4.469865
-0.907803 -1.288861 4.482107
-0.891036 -1.292371 4.494314
-0.875022 -1.297152 4.510939
-0.858591 -1.301516 4.526116
-0.841882 -1.305651 4.540495
-0.825111 -1.309882 4.555209
-0.808306 -1.314262 4.570442
-0.791816 -1.319387 4.588264
-0.775101 -1.324386 4.605648
-0.757954 -1.328890 4.621310
-0.741338 -1.334590 4.641134
-0.724037 -1.339337 4.657642
-0.706763 -1.344405 4.675264
-0.689004 -1.348818 4.690610
-0.671425 -1.353858 4.708138
-0.653378 -1.358238 4.723372
-0.634987 -1.362162 4.737016
-0.616353 -1.365804 4.749683
-0.597203 -1.368513 4.759103
-0.578233 -1.371838 4.770667
-0.559084 -1.374970 4.781559
-0.539602 -1.377488 4.790316
-0.519768 -1.379272 4.796517
-0.498600 -1.377514 4.790403
-0.476533 -1.373018 4.774768
-0.454075 -1.366941 4.753635
-0.431709 -1.360583 4.731524
-0.409436 -1.353908 4.708313
-0.387337 -1.347147 4.684800
-0.366156 -1.343013 4.670425
-0.346462 -1.344173 4.674459
-0.327442 -1.348249 4.688633
-0.308379 -1.352668 4.704000
-0.289160 -1.356977 4.718985
-0.269680 -1.360611 4.731624
-0.250321 -1.365495 4.748608
-0.230611 -1.369161 4.761355
-0.210981 -1.374060 4.778393
-0.191125 -1.378381 4.793419
-0.171195 -1.383142 4.809977
-0.151078 -1.387488 4.825089
-0.131519 -1.399142 4.865619
-0.114870 -1.451965 5.049314
-0.093374 -1.453815 5.055747
-0.071875 -1.456719 5.065845
-0.050221 -1.457626 5.069001
-0.028567 -1.459903 5.076919
-0.006834 -1.459883 5.076849
0.014884 -1.458431 5.071800
0.036572 -1.457532 5.068673
0.058267 -1.457477 5.068481
0.080024 -1.458563 5.072257
0.101830 -1.459907 5.076933
0.123722 -1.461778 5.083440
0.145756 -1.464529 5.093004
0.167931 -1.467795 5.104362
0.190216 -1.471153 5.116040
0.212791 -1.475836 5.132328
0.235640 -1.481359 5.151533
0.258651 -1.486875 5.170714
0.281827 -1.492388 5.189886
0.305165 -1.497893 5.209031
0.328478 -1.502534 5.225172
0.352128 -1.508029 5.244279
0.375941 -1.513518 5.263367
0.399915 -1.519001 5.282435
0.424052 -1.524479 5.301485
0.448417 -1.530183 5.321323
0.473079 -1.536296 5.342581
0.497768 -1.541931 5.362177
0.523014 -1.548718 5.385778
0.547823 -1.553693 5.403080
0.570347 -1.552047 5.397356
0.591247 -1.546281 5.377303
0.611572 -1.539500 5.353722
0.632314 -1.534221 5.335364
0.652355 -1.527668 5.312577
0.672657 -1.522148 5.293380
0.692334 -1.515620 5.270678
0.712283 -1.510079 5.251408
0.731468 -1.503309 5.227866
0.750450 -1.496535 5.204308
0.769239 -1.489778 5.180809
0.788359 -1.484021 5.160789
0.807389 -1.478415 5.141295
0.826034 -1.472420 5.120447
0.844071 -1.465678 5.097002
0.863008 -1.460801 5.080040
0.881542 -1.455498 5.061598
0.899741 -1.449908 5.042161
0.918122 -1.444867 5.024631
0.937230 -1.441176 5.011793
0.956158 -1.437379 4.998589
0.974893 -1.433463 4.984972
0.994073 -1.430357 4.974170
1.013666 -1.427962 4.965839
1.032807 -1.425041 4.955684
1.051941 -1.422230 4.945907
1.072335 -1.421198 4.942319
1.093333 -1.420993 4.941604
1.114699 -1.421264 4.942547
1.136939 -1.422618 4.947258
1.159026 -1.423735 4.951141
1.181604 -1.425404 4.956946
1.203819 -1.426584 4.961051
1.226183 -1.427897 4.965614
1.243781 -1.423709 4.951053
1.268945 -1.428177 4.966589
1.327420 -1.469372 5.109846
1.403435 -1.528331 5.314881
1.480114 -1.586121 5.515850
1.526588 -1.610235 5.599710
1.552304 -1.612048 5.606015
1.578550 -1.614347 5.614009
1.603292 -1.615063 5.616497
1.626101 -1.613838 5.612239
1.651391 -1.615077 5.616546
1.676375 -1.615984 5.619700
1.699413 -1.615016 5.616335
1.723221 -1.614797 5.615572
1.745200 -1.612893 5.608953
1.767133 -1.610999 5.602367
1.789708 -1.609734 5.597966
1.813533 -1.609611 5.597539
1.836120 -1.608407 5.593351
1.858796 -1.607311 5.589540
1.881242 -1.606046 5.585143
1.903828 -1.604932 5.581266
1.926185 -1.603654 5.576823
1.949448 -1.603152 5.575078
1.972814 -1.602747 5.573668
1.995999 -1.602206 5.571786
2.020041 -1.602357 5.572312
2.044286 -1.602664 5.573381
2.067634 -1.602269 5.572007
2.091519 -1.602294 5.572095
2.116494 -1.603144 5.575051
2.139630 -1.602598 5.573151
2.162724 -1.602033 5.571185
2.187907 -1.603011 5.574585
2.212979 -1.603887 5.577632
2.238413 -1.605004 5.581517
2.264550 -1.606596 5.587054
2.289757 -1.607502 5.590203
2.314002 -1.607721 5.590964
2.339662 -1.608908 5.595094
2.362407 -1.608088 5.592241
2.387633 -1.608955 5.595256
2.414045 -1.610596 5.600965
2.439003 -1.611245 5.603220
2.461917 -1.610544 5.600782
2.484707 -1.609776 5.598113
2.507236 -1.608855 5.594910
2.528945 -1.607431 5.589957
2.550453 -1.605906 5.584655
2.572301 -1.604622 5.580190
2.593394 -1.602895 5.574184
2.611567 -1.599412 5.562070
2.632737 -1.597810 5.556498
2.649491 -1.593580 5.541790
1.895038 -1.129687 3.928569
1.905340 -1.125837 3.915181
1.920386 -1.124834 3.911691
1.933147 -1.122521 3.903646
1.944694 -1.119548 3.893308
1.957687 -1.117451 3.886018
1.969617 -1.114788 3.876757
1.983021 -1.112997 3.870528
1.993622 -1.109676 3.858977
2.005544 -1.107138 3.850152
2.015484 -1.103556 3.837696
2.024768 -1.099676 3.824203
2.035383 -1.096576 3.813421
2.045510 -1.093263 3.801902
2.055278 -1.089813 3.789904
2.066719 -1.087297 3.781153
2.076067 -1.083727 3.768740
2.086951 -1.081009 3.759285
2.096228 -1.077505 3.747103
2.105057 -1.073827 3.734311
2.115270 -1.070904 3.724147
2.124612 -1.067588 3.712614
2.133005 -1.063848 3.699607
2.141949 -1.060435 3.687738
2.151546 -1.057393 3.677161
2.160213 -1.053942 3.665159
2.168500 -1.050356 3.652690
2.176776 -1.046817 3.640381
2.186618 -1.044075 3.630848
2.194320 -1.040358 3.617920
2.204577 -1.037896 3.609358
2.212732 -1.034485 3.597496
2.222507 -1.031873 3.588414
2.230789 -1.028609 3.577063
2.238556 -1.025154 3.565046
2.248715 -1.022834 3.556978
2.258501 -1.020375 3.548429
2.266218 -1.017022 3.536767
2.276888 -1.015029 3.529837
2.283764 -1.011382 3.517156
2.294209 -1.009354 3.510101
2.300417 -1.005500 3.496699
2.310797 -1.003507 3.489769
2.317248 -0.999845 3.477033
2.326216 -0.997309 3.468213
2.334190 -0.994381 3.458032
-2.202926 -0.903489 3.190151
-2.177130 -0.898479 3.172461
-2.143871 -0.890307 3.143606
-2.101058 -0.878039 3.100288
-2.039549 -0.857752 3.028658
-2.000772 -0.846827 2.990083
-1.981576 -0.844102 2.980461
-1.969911 -0.844571 2.982116
-1.963479 -0.847304 2.991766
-1.955230 -0.849284 2.998758
-1.948029 -0.851748 3.007458
-1.939879 -0.853828 3.014801
-1.930407 -0.855349 3.020171
-1.923791 -0.858165 3.030114
-1.915342 -0.860196 3.037285
-1.906060 -0.861878 3.043225
-1.898139 -0.864203 3.051433
-1.890318 -0.866605 3.059917
-1.880641 -0.868185 3.065494
-1.872120 -0.870324 3.073047
-1.864930 -0.873116 3.082908
-1.855057 -0.874684 3.088442
-1.847742 -0.877488 3.098344
-1.838652 -0.879485 3.105394
-1.829908 -0.881676 3.113132
-1.821987 -0.884300 3.122396
-1.812005 -0.885955 3.128238
-1.804443 -0.888826 3.138377
-1.795185 -0.890898 3.145694
-1.785749 -0.892913 3.152809
-1.777603 -0.895609 3.162328
-1.768393 -0.897806 3.170084
-1.760046 -0.900478 3.179520
-1.749955 -0.902293 3.185928
-1.741521 -0.904997 3.195476
-1.731319 -0.906818 3.201907
-1.720884 -0.908545 3.208004
-1.711782 -0.911010 3.216707
-1.702137 -0.913223 3.224521
-1.691074 -0.914705 3.229754
-1.680418 -0.916434 3.235857
-1.671557 -0.919178 3.245548
-1.661100 -0.921083 3.252276
-1.650932 -0.923183 3.259687
-1.641410 -0.925682 3.268513
-1.630418 -0.927388 3.274536
-1.619416 -0.929118 3.280645
-1.609444 -0.931474 3.288965
-1.599187 -0.933706 3.296845
-1.587867 -0.935351 3.302653
-1.578424 -0.938141 3.312506
-1.567186 -0.939906 3.318736
-1.555832 -0.941632 3.324831
-1.546287 -0.944496 3.334943
-1.534695 -0.946150 3.340785
-1.524559 -0.948742 3.349937
-1.513624 -0.950881 3.357490
-1.502528 -0.952960 3.364828
-1.492245 -0.955598 3.374144
-1.482388 -0.958564 3.384618
-1.472045 -0.961272 3.394177
-1.461083 -0.963624 3.402483
-1.450881 -0.966530 3.412745
-1.439324 -0.968585 3.419998
-1.428868 -0.971429 3.430043
-1.418070 -0.974097 3.439464
-1.406378 -0.976202 3.446894
-1.395281 -0.978768 3.455955
-1.383855 -0.981156 3.464386
-1.372972 -0.983985 3.474375
-1.361013 -0.986095 3.481828
-1.349734 -0.988752 3.491207
-1.338210 -0.991286 3.500154
-1.326406 -0.993668 3.508564
-1.315142 -0.996513 3.518611
-1.304329 -0.999769 3.530109
-1.292703 -1.002473 3.539655
-1.279982 -1.004380 3.546390
-1.268129 -1.007023 3.555722
-1.255688 -1.009258 3.563612
-1.244002 -1.012161 3.573863
-1.232586 -1.015359 3.585155
-1.220417 -1.018011 3.594518
-1.207181 -1.019827 3.600932
-1.194090 -1.021816 3.607954
-1.181469 -1.024263 3.616596
-1.217952 -1.069912 3.777780
-1.252115 -1.114724 3.936005
-1.241236 -1.120111 3.955025
-1.226192 -1.121837 3.961122
-1.213008 -1.125336 3.973476
-1.199259 -1.128404 3.984309
-1.185686 -1.131728 3.996046
-1.172155 -1.135190 4.008271
-1.157811 -1.137956 4.018038
-1.143506 -1.140845 4.028237
-1.129300 -1.143922 4.039100
-1.115363 -1.147371 4.051279
-1.101280 -1.150777 4.063305
-1.086674 -1.153737 4.073757
-1.072363 -1.157112 4.085674
-1.058288 -1.160857 4.098897
-1.043299 -1.163709 4.108970
-1.029717 -1.168256 4.125021
-1.018935 -1.176193 4.153048
-1.018887 -1.197023 4.226598
-1.030992 -1.233141 4.354128
-1.017925 -1.239928 4.378091
-1.001113 -1.242322 4.386546
-0.986183 -1.247189 4.403729
-0.971951 -1.253143 4.424754
-0.956382 -1.257578 4.440413
-0.940524 -1.261804 4.455334
-0.923984 -1.265272 4.467578
-0.907333 -1.268730 4.479789
-0.890953 -1.272725 4.493896
-0.874509 -1.276803 4.508296
-0.858115 -1.281139 4.523605
-0.841657 -1.285579 4.539281
-0.824820 -1.289634 4.553600
-0.808005 -1.293923 4.568744
-0.791543 -1.299003 4.586682
-0.774840 -1.303935 4.604095
-0.757699 -1.308370 4.619754
-0.740708 -1.313307 4.637188
-0.723730 -1.318539 4.655662
-0.706175 -1.322989 4.671375
-0.688696 -1.327843 4.688513
-0.671212 -1.332978 4.706644
-0.653090 -1.337126 4.721291
-0.635072 -1.341759 4.737649
-0.616551 -1.345598 4.751203
-0.597442 -1.348374 4.761005
-0.578467 -1.351658 4.772603
-0.559387 -1.354928 4.784149
-0.540007 -1.357691 4.793904
-0.519917 -1.358819 4.797886
-0.498871 -1.357439 4.793012
-0.476666 -1.352648 4.776097
-0.454224 -1.346728 4.755196
-0.432010 -1.340960 4.734827
-0.409686 -1.334266 4.711190
-0.387439 -1.327141 4.686033
-0.366329 -1.323345 4.672632
-0.346550 -1.324201 4.675652
-0.327524 -1.328211 4.689811
-0.308433 -1.332466 4.704837
-0.289240 -1.336842 4.720288
-0.269861 -1.340950 4.734791
-0.250380 -1.345179 4.749724
-0.230769 -1.349397 4.764617
-0.210914 -1.352870 4.776880
-0.191154 -1.357755 4.794128
-0.171221 -1.362448 4.810701
-0.151039 -1.366168 4.823837
-0.132631 -1.389647 4.906737
-0.115783 -1.441396 5.089461
-0.094267 -1.445533 5.104067
-0.072608 -1.449337 5.117500
-0.050820 -1.452734 5.129492
-0.028938 -1.456507 5.142816
-0.006927 -1.457383 5.145910
0.015101 -1.457347 5.145783
0.037113 -1.456754 5.143688
0.059091 -1.455749 5.140140
0.081060 -1.455135 5.137969
0.103083 -1.455530 5.139365
0.125073 -1.455417 5.138966
0.147197 -1.456660 5.143354
0.169307 -1.457457 5.146171
0.191516 -1.458827 5.151008
0.213835 -1.460669 5.157511
0.236433 -1.463885 5.168865
0.259242 -1.467752 5.182519
0.282277 -1.472187 5.198180
0.305372 -1.476260 5.212561
0.328726 -1.480951 5.229125
0.352180 -1.485459 5.245044
0.376048 -1.491073 5.264864
0.400217 -1.497178 5.286421
0.424371 -1.502576 5.305480
0.448687 -1.507968 5.324519
0.473163 -1.513353 5.343535
0.498069 -1.519551 5.365419
0.523395 -1.526429 5.389704
0.548286 -1.531509 5.407643
0.570821 -1.529867 5.401845
0.591349 -1.523182 5.378238
0.611677 -1.516500 5.354647
0.632177 -1.510713 5.334214
0.652606 -1.505165 5.314622
0.672771 -1.499403 5.294277
0.692592 -1.493275 5.272641
0.712147 -1.486979 5.250411
0.731704 -1.481072 5.229553
0.751051 -1.475101 5.208470
0.770116 -1.468940 5.186716
0.789086 -1.462946 5.165552
0.808307 -1.457732 5.147142
0.827220 -1.452253 5.127796
0.846216 -1.447200 5.109954
0.865374 -1.442673 5.093967
0.884669 -1.438589 5.079548
0.903985 -1.434736 5.065943
0.923346 -1.431133 5.053222
0.943413 -1.428764 5.044858
0.963669 -1.426780 5.037852
0.984113 -1.425156 5.032116
1.004101 -1.422955 5.024345
1.024788 -1.421817 5.020328
1.044167 -1.418947 5.010192
1.064569 -1.417555 5.005278
1.086174 -1.417789 5.006104
1.108870 -1.419410 5.011829
1.133565 -1.423479 5.026197
1.155689 -1.424230 5.028847
1.175761 -1.422469 5.022630
1.203717 -1.430138 5.049709
1.256753 -1.466810 5.179194
1.328160 -1.523280 5.378584
1.390642 -1.567763 5.535651
1.445069 -1.601827 5.655931
1.475561 -1.608675 5.680109
1.503344 -1.612394 5.693240
1.527774 -1.612457 5.693462
1.554185 -1.614575 5.700941
1.577992 -1.613964 5.698782
1.603178 -1.614761 5.701598
1.628099 -1.615271 5.703400
1.652990 -1.615737 5.705044
1.677309 -1.615637 5.704693
1.701611 -1.615525 5.704297
1.724039 -1.613663 5.697720
1.748134 -1.613390 5.696757
1.771485 -1.612448 5.693432
1.793780 -1.610583 5.686847
1.817730 -1.610234 5.685614
1.841628 -1.609850 5.684257
1.863837 -1.608017 5.677787
1.887619 -1.607572 5.676215
1.909631 -1.605649 5.669426
1.933317 -1.605165 5.667716
1.955208 -1.603222 5.660854
1.978801 -1.602703 5.659023
2.002499 -1.602282 5.657535
2.025963 -1.601686 5.655430
2.049634 -1.601265 5.653946
2.073065 -1.600669 5.651841
2.096743 -1.600275 5.650450
2.122028 -1.601103 5.653373
2.145516 -1.600572 5.651498
2.169665 -1.600540 5.651385
2.193066 -1.599963 5.649346
2.217786 -1.600350 5.650715
2.243340 -1.601325 5.654156
2.269550 -1.602741 5.659156
2.294976 -1.603580 5.662119
2.320208 -1.604268 5.664548
2.343287 -1.603467 5.661721
2.365064 -1.601802 5.655842
2.386352 -1.599843 5.648923
2.413049 -1.601512 5.654818
2.443315 -1.605493 5.668875
2.471017 -1.607729 5.676768
2.495631 -1.607931 5.677481
2.517013 -1.606067 5.670899
2.541494 -1.606196 5.671357
2.562663 -1.604251 5.664487
2.584629 -1.602835 5.659489
2.605714 -1.600905 5.652675
2.629069 -1.600392 5.650864
2.648097 -1.597279 5.639871
2.667884 -1.594675 5.630678
2.683604 -1.589709 5.613142
1.900422 -1.115779 3.939730
1.907149 -1.109879 3.918899
1.922204 -1.108886 3.915394
1.934092 -1.106100 3.905554
1.945336 -1.102995 3.894593
1.958160 -1.100833 3.886956
1.971457 -1.098970 3.880379
1.983283 -1.096325 3.871039
1.995047 -1.093690 3.861736
2.006340 -1.090842 3.851680
2.016461 -1.087408 3.839556
2.026272 -1.083865 3.827044
2.035574 -1.080107 3.813777
2.046640 -1.077339 3.804002
2.056020 -1.073734 3.791272
2.067349 -1.071194 3.782306
2.077187 -1.067928 3.770773
2.085794 -1.064084 3.757201
2.095937 -1.061077 3.746582
2.106250 -1.058201 3.736427
2.115337 -1.054757 3.724265
2.124170 -1.051238 3.711842
2.133721 -1.048125 3.700848
2.142376 -1.044620 3.688473
2.150916 -1.041111 3.676085
2.160901 -1.038347 3.666326
2.169650 -1.035034 3.654628
2.177183 -1.031193 3.641063
2.185515 -1.027781 3.629017
2.195762 -1.025312 3.620299
2.203339 -1.021639 3.607331
2.213360 -1.019143 3.598518
2.221475 -1.015810 3.586748
2.232540 -1.013863 3.579872
2.239547 -1.010111 3.566625
2.250612 -1.008229 3.559978
2.258120 -1.004788 3.547830
2.268015 -1.002449 3.539572
2.275390 -0.999035 3.527515
2.284198 -0.996290 3.517824
2.291749 -0.993037 3.506338
2.299459 -0.989894 3.495242
2.308222 -0.987243 3.485881
2.316290 -0.984330 3.475595
2.324892 -0.981680 3.466239
2.333720 -0.979159 3.457336
-2.206204 -0.890952 3.194897
-2.179564 -0.885684 3.176008
-2.143269 -0.876402 3.142723
-2.095745 -0.862382 3.092449
-2.036345 -0.843266 3.023900
-1.999585 -0.833341 2.988309
-1.980083 -0.830526 2.978216
-1.970539 -0.831879 2.983067
-1.962147 -0.833739 2.989737
-1.955900 -0.836541 2.999784
-1.947427 -0.838422 3.006530
-1.940150 -0.840846 3.015221
-1.931821 -0.842843 3.022384
-1.922640 -0.844494 3.028302
-1.915625 -0.847124 3.037735
-1.907448 -0.849273 3.045440
-1.897790 -0.850788 3.050873
-1.888769 -0.852611 3.057410
-1.879524 -0.854358 3.063674
-1.872508 -0.857149 3.073684
-1.863574 -0.859096 3.080667
-1.855507 -0.861474 3.089192
-1.846627 -0.863505 3.096476
-1.837700 -0.865544 3.103786
-1.830202 -0.868290 3.113633
-1.821099 -0.870309 3.120873
-1.812503 -0.872603 3.129099
-1.803350 -0.874660 3.136475
-1.795702 -0.877483 3.146600
-1.785953 -0.879315 3.153169
-1.776871 -0.881506 3.161025
-1.768562 -0.884117 3.170387
-1.759374 -0.886325 3.178307
-1.750801 -0.888880 3.187467
-1.740458 -0.890569 3.193527
-1.731682 -0.893093 3.202577
-1.722076 -0.895227 3.210227
-1.711557 -0.896915 3.216283
-1.701642 -0.898951 3.223583
-1.691984 -0.901157 3.231493
-1.681571 -0.902993 3.238077
-1.671385 -0.904983 3.245213
-1.662049 -0.907471 3.254134
-1.651233 -0.909185 3.260282
-1.640399 -0.910919 3.266499
-1.631403 -0.913712 3.276515
-1.620510 -0.915482 3.282862
-1.609270 -0.917085 3.288611
-1.599997 -0.919847 3.298514
-1.588931 -0.921619 3.304868
-1.577660 -0.923302 3.310903
-1.567586 -0.925722 3.319583
-1.556867 -0.927803 3.327043
-1.546502 -0.930135 3.335405
-1.536093 -0.932483 3.343827
-1.524076 -0.933891 3.348875
-1.513593 -0.936274 3.357421
-1.502858 -0.938546 3.365566
-1.492259 -0.940946 3.374176
-1.481694 -0.943416 3.383032
-1.471685 -0.946292 3.393346
-1.461162 -0.948892 3.402668
-1.449910 -0.951065 3.410461
-1.439863 -0.954082 3.421279
-1.429088 -0.956673 3.430571
-1.417753 -0.958939 3.438696
-1.406559 -0.961349 3.447338
-1.394943 -0.963518 3.455117
-1.383641 -0.965954 3.463851
-1.372213 -0.968353 3.472455
-1.361326 -0.971191 3.482629
-1.350008 -0.973780 3.491915
-1.337821 -0.975794 3.499138
-1.327092 -0.978928 3.510377
-1.315494 -0.981487 3.519551
-1.303541 -0.983837 3.527977
-1.292239 -0.986739 3.538384
-1.279947 -0.988944 3.546293
-1.267670 -0.991214 3.554434
-1.255635 -0.993731 3.563459
-1.243204 -0.995993 3.571571
-1.231819 -0.999160 3.582925
-1.219968 -1.002024 3.593196
-1.206473 -1.003593 3.598822
-1.194394 -1.006396 3.608872
-1.180718 -1.007909 3.614300
-1.234827 -1.068094 3.830120
-1.252399 -1.097871 3.936897
-1.240537 -1.102306 3.952800
-1.226129 -1.104569 3.960916
-1.212259 -1.107388 3.971025
-1.198564 -1.110449 3.982000
-1.185066 -1.113783 3.993955
-1.171231 -1.116893 4.005111
-1.157368 -1.120070 4.016501
-1.143631 -1.123465 4.028677
-1.129086 -1.126158 4.038334
-1.115141 -1.129543 4.050473
-1.101050 -1.132885 4.062456
-1.086898 -1.136271 4.074598
-1.072060 -1.139038 4.084519
-1.058207 -1.142961 4.098586
-1.042936 -1.145457 4.107538
-1.030131 -1.150795 4.126679
-1.019527 -1.158821 4.155461
-1.016603 -1.176016 4.217120
-1.022888 -1.204678 4.319902
-1.014314 -1.216575 4.362564
-0.999226 -1.220958 4.378281
-0.986924 -1.228978 4.407038
-0.973163 -1.235457 4.430274
-0.957243 -1.239400 4.444411
-0.940820 -1.242837 4.456735
-0.924283 -1.246264 4.469025
-0.907300 -1.249220 4.479625
-0.891169 -1.253503 4.494983
-0.874610 -1.257360 4.508814
-0.857998 -1.261312 4.522987
-0.841292 -1.265306 4.537309
-0.824608 -1.269523 4.552431
-0.807909 -1.273920 4.568197
-0.791330 -1.278730 4.585447
-0.774356 -1.283128 4.601219
-0.757486 -1.287934 4.618453
-0.740500 -1.292796 4.635887
-0.723460 -1.297827 4.653926
-0.705896 -1.302177 4.669526
-0.688640 -1.307365 4.688130
-0.670913 -1.311945 4.704552
-0.653043 -1.316519 4.720955
-0.634878 -1.320770 4.736200
-0.616345 -1.324513 4.749621
-0.597477 -1.327766 4.761285
-0.578502 -1.331001 4.772888
-0.559538 -1.334500 4.785434
-0.540115 -1.337130 4.794865
-0.519963 -1.338091 4.798311
-0.498785 -1.336382 4.792184
-0.476823 -1.332337 4.777679
-0.454381 -1.326527 4.756842
-0.431866 -1.319947 4.733249
-0.409787 -1.314120 4.712351
-0.387742 -1.307802 4.689698
-0.366286 -1.302892 4.672089
-0.346562 -1.303928 4.675807
-0.327557 -1.307963 4.690275
-0.308464 -1.312155 4.705307
-0.289241 -1.316338 4.720307
-0.269739 -1.319783 4.732662
-0.250394 -1.324619 4.750002
-0.230662 -1.328078 4.762406
-0.211043 -1.332929 4.779802
-0.191180 -1.337112 4.794802
-0.171344 -1.342511 4.814161
-0.151199 -1.346635 4.828950
-0.133738 -1.379753 4.947710
-0.116648 -1.429878 5.127453
-0.094967 -1.433927 5.141974
-0.073174 -1.438227 5.157393
-0.051249 -1.442511 5.172753
-0.029192 -1.446791 5.188102
-0.006997 -1.449615 5.198231
0.015279 -1.451920 5.206497
0.037565 -1.451840 5.206208
0.059828 -1.451295 5.204255
0.082153 -1.452125 5.207229
0.104533 -1.453370 5.211693
0.126794 -1.452812 5.209693
0.149121 -1.453060 5.210583
0.171401 -1.452847 5.209821
0.193679 -1.452673 5.209194
0.216151 -1.453837 5.213370
0.238655 -1.454978 5.217459
0.261134 -1.455784 5.220350
0.283773 -1.457282 5.225722
0.306488 -1.458926 5.231617
0.329465 -1.461507 5.240872
0.352610 -1.464458 5.251455
0.376264 -1.469041 5.267890
0.400258 -1.474361 5.286968
0.424519 -1.480040 5.307333
0.448772 -1.485114 5.325528
0.473367 -1.490779 5.345840
0.498334 -1.497036 5.368279
0.523722 -1.503949 5.393069
0.548397 -1.508319 5.408739
0.570508 -1.505570 5.398880
0.591024 -1.498989 5.375282
0.611340 -1.492412 5.351697
0.632073 -1.487291 5.333335
0.652427 -1.481668 5.313170
0.672568 -1.475954 5.292679
0.692810 -1.470829 5.274302
0.712755 -1.465415 5.254888
0.732947 -1.460826 5.238431
0.752321 -1.454928 5.217281
0.772048 -1.450033 5.199728
0.791859 -1.445564 5.183704
0.811796 -1.441564 5.169359
0.831476 -1.437331 5.154181
0.851578 -1.434027 5.142334
0.872004 -1.431423 5.132995
0.892604 -1.429224 5.125109
0.912983 -1.426786 5.116368
0.933481 -1.424645 5.108689
0.954294 -1.423070 5.103040
0.974577 -1.420793 5.094875
0.995015 -1.418837 5.087863
1.015859 -1.417531 5.083180
1.037873 -1.417879 5.084428
1.061928 -1.420943 5.095414
1.081568 -1.418095 5.085202
1.104029 -1.418986 5.088396
1.129606 -1.423769 5.105548
1.181301 -1.460666 5.237857
1.259115 -1.527883 5.478893
1.323762 -1.576954 5.654860
1.382783 -1.617682 5.800909
1.419032 -1.630804 5.847962
1.439838 -1.626030 5.830842
1.464658 -1.625874 5.830283
1.484071 -1.619822 5.808581
1.507758 -1.618558 5.804049
1.531389 -1.617276 5.799450
1.555198 -1.616218 5.795659
1.578229 -1.614400 5.789138
1.603295 -1.614686 5.790164
1.627993 -1.614599 5.789851
1.652597 -1.614422 5.789218
1.677246 -1.614295 5.788760
1.701994 -1.614263 5.788649
1.726573 -1.614076 5.787977
1.749845 -1.612690 5.783006
1.773825 -1.611985 5.780478
1.798196 -1.611650 5.779277
1.822415 -1.611191 5.777629
1.845132 -1.609432 5.771325
1.869342 -1.609006 5.769796
1.891839 -1.607136 5.763089
1.915962 -1.606676 5.761442
1.938311 -1.604761 5.754573
1.960462 -1.602732 5.747296
1.984562 -1.602325 5.745839
2.008475 -1.601781 5.743887
2.032514 -1.601348 5.742336
2.055120 -1.599811 5.736822
2.078455 -1.598870 5.733449
2.102854 -1.598760 5.733056
2.128048 -1.599251 5.734815
2.151899 -1.598732 5.732955
2.176353 -1.598668 5.732725
2.199971 -1.597999 5.730324
2.223681 -1.597409 5.728211
2.249440 -1.598289 5.731366
2.274581 -1.598716 5.732895
2.300459 -1.599645 5.736228
2.326528 -1.600687 5.739964
2.350086 -1.599998 5.737492
2.371128 -1.597626 5.728989
2.389938 -1.593816 5.715324
2.411369 -1.591813 5.708141
2.441913 -1.595805 5.722458
2.474547 -1.601070 5.741339
2.502994 -1.603550 5.750229
2.527919 -1.603746 5.750934
2.551275 -1.602953 5.748092
2.574361 -1.602007 5.744699
2.596905 -1.600746 5.740175
2.618038 -1.598646 5.732645
2.640474 -1.597373 5.728081
2.664674 -1.597181 5.727391
2.686024 -1.595300 5.720647
2.704663 -1.591857 5.708301
2.722626 -1.588082 5.694762
1.903574 -1.100483 3.946265
1.908293 -1.093507 3.921250
1.923050 -1.092355 3.917116
1.934246 -1.089217 3.905865
1.946327 -1.086627 3.896578
1.959872 -1.084892 3.890354
1.971572 -1.082173 3.880605
1.983991 -1.079891 3.872421
1.995853 -1.077346 3.863295
2.006773 -1.074338 3.852510
2.017473 -1.071263 3.841483
2.027147 -1.067697 3.828697
2.036440 -1.063990 3.815401
2.046216 -1.060591 3.803214
2.056962 -1.057745 3.793008
2.066562 -1.054359 3.780866
2.076819 -1.051358 3.770105
2.087268 -1.048500 3.759857
2.096006 -1.044833 3.746706
2.105730 -1.041709 3.735504
2.116177 -1.038987 3.725745
2.124321 -1.035184 3.712105
2.133056 -1.031723 3.699694
2.142638 -1.028720 3.688926
2.151890 -1.025603 3.677749
2.159965 -1.021975 3.664739
2.169818 -1.019234 3.654910
2.177681 -1.015605 3.641895
2.186002 -1.012239 3.629826
2.194710 -1.009098 3.618564
2.204945 -1.006699 3.609961
2.214464 -1.004009 3.600312
2.223101 -1.000958 3.589374
2.231883 -0.998014 3.578818
2.240992 -0.995256 3.568927
2.248830 -0.991974 3.557158
2.257610 -0.989150 3.547029
2.265521 -0.985984 3.535678
2.272490 -0.982454 3.523019
2.279957 -0.979184 3.511293
2.287549 -0.976010 3.499913
2.295772 -0.973145 3.489637
2.304023 -0.970329 3.479539
2.313368 -0.968006 3.471211
2.322118 -0.965466 3.462103
2.332353 -0.963572 3.455310
-2.202776 -0.875708 3.189934
-2.177071 -0.870887 3.172376
-2.142166 -0.862303 3.141106
-2.091731 -0.847320 3.086526
-2.030652 -0.827806 3.015445
-1.996042 -0.818903 2.983013
-1.979569 -0.817374 2.977443
-1.969034 -0.818293 2.980789
-1.962760 -0.821005 2.990671
-1.954465 -0.822903 2.997585
-1.948374 -0.825760 3.007991
-1.939204 -0.827342 3.013752
-1.930204 -0.829017 3.019854
-1.922808 -0.831409 3.028567
-1.914709 -0.833527 3.036282
-1.905869 -0.835349 3.042919
-1.897950 -0.837603 3.051129
-1.888716 -0.839303 3.057323
-1.880065 -0.841288 3.064555
-1.871421 -0.843304 3.071900
-1.863431 -0.845646 3.080430
-1.854486 -0.847585 3.087491
-1.845470 -0.849518 3.094535
-1.838145 -0.852264 3.104536
-1.828738 -0.854077 3.111141
-1.820654 -0.856540 3.120112
-1.811493 -0.858528 3.127355
-1.803900 -0.861295 3.137433
-1.794696 -0.863328 3.144838
-1.785188 -0.865244 3.151820
-1.777186 -0.867925 3.161586
-1.767859 -0.869996 3.169127
-1.759655 -0.872655 3.178813
-1.750158 -0.874709 3.186298
-1.741761 -0.877350 3.195917
-1.730964 -0.878814 3.201251
-1.721523 -0.880995 3.209196
-1.712832 -0.883599 3.218680
-1.701819 -0.885037 3.223919
-1.691264 -0.886738 3.230116
-1.682527 -0.889429 3.239918
-1.672065 -0.891246 3.246534
-1.661916 -0.893260 3.253873
-1.652229 -0.895559 3.262248
-1.641608 -0.897388 3.268908
-1.630451 -0.898951 3.274603
-1.620703 -0.901325 3.283252
-1.610451 -0.903459 3.291024
-1.599265 -0.905101 3.297007
-1.589999 -0.907869 3.307090
-1.578813 -0.909580 3.313322
-1.567307 -0.911137 3.318992
-1.557113 -0.913492 3.327571
-1.546449 -0.915611 3.335291
-1.536019 -0.917911 3.343667
-1.525206 -0.920022 3.351358
-1.513499 -0.921629 3.357213
-1.502854 -0.923920 3.365557
-1.492139 -0.926211 3.373904
-1.482122 -0.928986 3.384010
-1.471119 -0.931190 3.392040
-1.461004 -0.934006 3.402299
-1.450881 -0.936874 3.412745
-1.439179 -0.938770 3.419653
-1.428986 -0.941700 3.430324
-1.417920 -0.944109 3.439101
-1.406340 -0.946223 3.446801
-1.395149 -0.948646 3.455627
-1.383400 -0.950738 3.463246
-1.372876 -0.953726 3.474133
-1.360479 -0.955464 3.480463
-1.349633 -0.958342 3.490947
-1.338118 -0.960804 3.499914
-1.326331 -0.963124 3.508365
-1.315156 -0.965946 3.518647
-1.303484 -0.968465 3.527822
-1.291422 -0.970750 3.536146
-1.279992 -0.973570 3.546417
-1.267227 -0.975430 3.553193
-1.255284 -0.977975 3.562464
-1.244058 -0.981148 3.574023
-1.231813 -0.983588 3.582908
-1.219241 -0.985824 3.591053
-1.207250 -0.988593 3.601140
-1.193643 -0.990092 3.606603
-1.181417 -0.992792 3.616439
-1.244965 -1.060086 3.861567
-1.252062 -1.080475 3.935838
-1.239774 -1.084463 3.950367
-1.225755 -1.087028 3.959709
-1.212570 -1.090414 3.972044
-1.199150 -1.093682 3.983947
-1.185055 -1.096420 3.993921
-1.171542 -1.099783 4.006174
-1.156942 -1.102212 4.015022
-1.143083 -1.105431 4.026745
-1.128792 -1.108324 4.037284
-1.114852 -1.111657 4.049425
-1.100766 -1.114947 4.061411
-1.086544 -1.118202 4.073269
-1.072225 -1.121463 4.085146
-1.057857 -1.124780 4.097229
-1.042808 -1.127472 4.107037
-1.030523 -1.133297 4.128253
-1.017972 -1.139026 4.149124
-1.015637 -1.156593 4.213114
-1.024044 -1.187250 4.324787
-1.011867 -1.194730 4.352036
-0.992730 -1.194121 4.349816
-0.980529 -1.201989 4.378478
-0.967862 -1.209583 4.406142
-0.953240 -1.214987 4.425825
-0.938454 -1.220396 4.445529
-0.923390 -1.225661 4.464707
-0.908121 -1.230869 4.483680
-0.891851 -1.234917 4.498424
-0.874972 -1.238281 4.510678
-0.857970 -1.241620 4.522842
-0.841379 -1.245722 4.537783
-0.824834 -1.250086 4.553681
-0.807603 -1.253596 4.566467
-0.790630 -1.257693 4.581390
-0.774072 -1.262673 4.599530
-0.757218 -1.267419 4.616818
-0.740093 -1.271953 4.633335
-0.723038 -1.276861 4.651212
-0.705701 -1.281535 4.668238
-0.688407 -1.286560 4.686544
-0.670991 -1.291653 4.705094
-0.652830 -1.295583 4.719410
-0.634943 -1.300326 4.736688
-0.616409 -1.304012 4.750115
-0.597540 -1.307216 4.761786
-0.578827 -1.310999 4.775567
-0.559741 -1.314184 4.787171
-0.540297 -1.316740 4.796479
-0.520140 -1.317692 4.799949
-0.498958 -1.316016 4.793844
-0.476876 -1.311724 4.778210
-0.454356 -1.305785 4.756575
-0.432095 -1.300070 4.735758
-0.409783 -1.293631 4.712303
-0.387885 -1.287900 4.691424
-0.366622 -1.283767 4.676370
-0.346635 -1.283882 4.676788
-0.327422 -1.287055 4.688346
-0.308494 -1.291836 4.705761
-0.289118 -1.295276 4.718295
-0.269759 -1.299317 4.733015
-0.250285 -1.303411 4.747927
-0.230681 -1.307494 4.762801
-0.211083 -1.312408 4.780699
-0.191210 -1.316480 4.795533
-0.171371 -1.321800 4.814913
-0.151234 -1.325954 4.830044
-0.134219 -1.363139 4.965498
-0.117075 -1.412756 5.146237
-0.095419 -1.418303 5.166444
-0.073523 -1.422562 5.181959
-0.051529 -1.427789 5.200998
-0.029380 -1.433418 5.221502
-0.007047 -1.437209 5.235312
0.015393 -1.439973 5.245380
0.037883 -1.441347 5.250385
0.060415 -1.442682 5.255247
0.083043 -1.444981 5.263623
0.105736 -1.447181 5.271638
0.128299 -1.447149 5.271519
0.151083 -1.449240 5.279137
0.173656 -1.449028 5.278364
0.196226 -1.448846 5.277702
0.218985 -1.449946 5.281711
0.241547 -1.449661 5.280671
0.264172 -1.449772 5.281075
0.286909 -1.450429 5.283467
0.309465 -1.450147 5.282440
0.332088 -1.450191 5.282600
0.354706 -1.450210 5.282672
0.377771 -1.451946 5.288995
0.401281 -1.455097 5.300474
0.424861 -1.458154 5.311608
0.448799 -1.462064 5.325852
0.473281 -1.467284 5.344865
0.498110 -1.473047 5.365858
0.523792 -1.480716 5.393796
0.548470 -1.485017 5.409461
0.570569 -1.482271 5.399460
0.590891 -1.475301 5.374069
0.611405 -1.469314 5.352262
0.631954 -1.463842 5.332327
0.652241 -1.458167 5.311655
0.672926 -1.453732 5.295500
0.693920 -1.450231 5.282749
0.714734 -1.446589 5.269479
0.735211 -1.442508 5.254616
0.755771 -1.438827 5.241208
0.776352 -1.435397 5.228712
0.797334 -1.432879 5.219541
0.818232 -1.430354 5.210342
0.839052 -1.427829 5.201143
0.860029 -1.425694 5.193367
0.881404 -1.424310 5.188325
0.902986 -1.423321 5.184722
0.924245 -1.421881 5.179479
0.946088 -1.421388 5.177680
0.968746 -1.422113 5.180320
0.988921 -1.419242 5.169865
1.006503 -1.412857 5.146604
1.029609 -1.414334 5.151986
1.069131 -1.437826 5.237558
1.136143 -1.496562 5.451519
1.198427 -1.546833 5.634640
1.254837 -1.587688 5.783460
1.308847 -1.623984 5.915676
1.341237 -1.632586 5.947011
1.364298 -1.629723 5.936581
1.389593 -1.629585 5.936078
1.413962 -1.628386 5.931711
1.439837 -1.628932 5.933702
1.462960 -1.626400 5.924478
1.485824 -1.623671 5.914536
1.508331 -1.620651 5.903535
1.530765 -1.617652 5.892611
1.554126 -1.615715 5.885554
1.577658 -1.614015 5.879361
1.602105 -1.613289 5.876716
1.627104 -1.613133 5.876149
1.652565 -1.613432 5.877239
1.677537 -1.613252 5.876584
1.702554 -1.613121 5.876105
1.727526 -1.612952 5.875488
1.752616 -1.612895 5.875282
1.776177 -1.611453 5.870028
1.800573 -1.610798 5.867643
1.825306 -1.610459 5.866409
1.849919 -1.610024 5.864823
1.872941 -1.608235 5.858309
1.897533 -1.607823 5.856808
1.920343 -1.605932 5.849919
1.944823 -1.605469 5.848231
1.967505 -1.603551 5.841247
1.989985 -1.601519 5.833845
2.014423 -1.601095 5.832297
2.037372 -1.599511 5.826527
2.061199 -1.598646 5.823378
2.085312 -1.598022 5.821103
2.109727 -1.597640 5.819713
2.133849 -1.597049 5.817559
2.158656 -1.596977 5.817299
2.184085 -1.597363 5.818704
2.208248 -1.596824 5.816739
2.232196 -1.596143 5.814260
2.256123 -1.595463 5.811782
2.280387 -1.595033 5.810217
2.305203 -1.594994 5.810075
2.331138 -1.595722 5.812728
2.357241 -1.596549 5.815740
2.383310 -1.597335 5.818603
2.404126 -1.594622 5.808719
2.420988 -1.589367 5.789577
2.444968 -1.588845 5.787675
2.478447 -1.594445 5.808074
2.510985 -1.599333 5.825881
2.535483 -1.599055 5.824869
2.561256 -1.599579 5.826775
2.584935 -1.598797 5.823929
2.608339 -1.597862 5.820523
2.631767 -1.596959 5.817234
2.654073 -1.595399 5.811549
2.678048 -1.594861 5.809590
2.701882 -1.594250 5.807365
2.724624 -1.593012 5.802855
2.745693 -1.590828 5.794898
2.773184 -1.592369 5.800511
1.907708 -1.085689 3.954834
1.909777 -1.077307 3.924299
1.923792 -1.075750 3.918628
1.935679 -1.073041 3.908758
1.946777 -1.069944 3.897478
1.959743 -1.067918 3.890099
1.971401 -1.065220 3.880268
1.984510 -1.063343 3.873434
1.996625 -1.060970 3.864789
2.007284 -1.057869 3.853493
2.017207 -1.054433 3.840977
2.027055 -1.051014 3.828523
2.037165 -1.047785 3.816758
2.047181 -1.044559 3.805008
2.056965 -1.041266 3.793015
2.068120 -1.038714 3.783717
2.076928 -1.035032 3.770303
2.086876 -1.031970 3.759151
2.096658 -1.028874 3.747871
2.105927 -1.025574 3.735853
2.115163 -1.022309 3.723958
2.124934 -1.019349 3.713177
2.134061 -1.016127 3.701438
2.142381 -1.012570 3.688483
2.152656 -1.009983 3.679059
2.161254 -1.006652 3.666926
2.170062 -1.003466 3.655321
2.178970 -1.000372 3.644050
2.187842 -0.997306 3.632880
2.195663 -0.993807 3.620134
2.205577 -0.991298 3.610995
2.213865 -0.988098 3.599338
2.221628 -0.984710 3.586996
2.229231 -0.981297 3.574565
2.237253 -0.978114 3.562971
2.246189 -0.975372 3.552981
2.253434 -0.971937 3.540468
2.262850 -0.969478 3.531510
2.269954 -0.966067 3.519088
2.280168 -0.964017 3.511618
2.286503 -0.960364 3.498312
2.295333 -0.957800 3.488971
2.302814 -0.954709 3.477713
2.313629 -0.953032 3.471602
2.322355 -0.950521 3.462456
2.332600 -0.948659 3.455676
-2.204772 -0.862628 3.192825
-2.178721 -0.857753 3.174779
-2.140205 -0.847878 3.138230
-2.087938 -0.832397 3.080929
-2.025711 -0.812722 3.008109
-1.993736 -0.805011 2.979567
-1.978774 -0.804114 2.976248
-1.969848 -0.805674 2.982021
-1.964327 -0.808656 2.993059
-1.955237 -0.810199 2.998768
-1.948103 -0.812577 3.007572
-1.940771 -0.814905 3.016186
-1.931201 -0.816317 3.021414
-1.921930 -0.817876 3.027183
-1.913358 -0.819755 3.034140
-1.905761 -0.822081 3.042747
-1.897100 -0.823976 3.049763
-1.887702 -0.825576 3.055682
-1.878852 -0.827439 3.062579
-1.870965 -0.829755 3.071151
-1.862418 -0.831809 3.078755
-1.853580 -0.833762 3.085982
-1.845978 -0.836303 3.095386
-1.836577 -0.838060 3.101889
-1.828832 -0.840603 3.111302
-1.819643 -0.842515 3.118380
-1.811987 -0.845170 3.128207
-1.802891 -0.847188 3.135677
-1.793924 -0.849298 3.143486
-1.785564 -0.851729 3.152483
-1.775425 -0.853342 3.158453
-1.767424 -0.856015 3.168347
-1.757933 -0.858002 3.175702
-1.749726 -0.860653 3.185512
-1.740078 -0.862629 3.192829
-1.730544 -0.864695 3.200474
-1.721774 -0.867178 3.209665
-1.711444 -0.868909 3.216071
-1.701468 -0.870849 3.223253
-1.691655 -0.872906 3.230864
-1.681317 -0.874722 3.237588
-1.671571 -0.876881 3.245576
-1.661761 -0.879040 3.253569
-1.651242 -0.880859 3.260300
-1.640312 -0.882487 3.266326
-1.630489 -0.884744 3.274679
-1.620323 -0.886852 3.282483
-1.609024 -0.888372 3.288108
-1.599994 -0.891182 3.298509
-1.588776 -0.892813 3.304544
-1.577848 -0.894637 3.311298
-1.567336 -0.896733 3.319055
-1.556742 -0.898819 3.326777
-1.546273 -0.901017 3.334913
-1.535987 -0.903364 3.343598
-1.523981 -0.904733 3.348665
-1.513396 -0.906980 3.356984
-1.502781 -0.909253 3.365393
-1.492081 -0.911517 3.373775
-1.481554 -0.913932 3.382713
-1.471608 -0.916757 3.393168
-1.461014 -0.919230 3.402322
-1.450166 -0.921592 3.411065
-1.438898 -0.923732 3.418985
-1.428988 -0.926797 3.430329
-1.417745 -0.929052 3.438675
-1.406455 -0.931323 3.447082
-1.394950 -0.933498 3.455134
-1.383554 -0.935794 3.463632
-1.371843 -0.937925 3.471517
-1.361343 -0.940938 3.482672
-1.348733 -0.942545 3.488618
-1.337771 -0.945351 3.499005
-1.326221 -0.947802 3.508075
-1.314268 -0.950016 3.516271
-1.303198 -0.952929 3.527050
-1.292245 -0.955995 3.538399
-1.279117 -0.957506 3.543994
-1.267748 -0.960386 3.554654
-1.254730 -0.962072 3.560893
-1.243205 -0.964957 3.571573
-1.231501 -0.967775 3.582001
-1.220059 -0.970872 3.593463
-1.206460 -0.972309 3.598782
-1.193646 -0.974424 3.606612
-1.180702 -0.976488 3.614250
-1.248030 -1.045876 3.871073
-1.252331 -1.063602 3.936683
-1.240175 -1.067645 3.951647
-1.225135 -1.069281 3.957704
-1.211981 -1.072634 3.970113
-1.198519 -1.075805 3.981849
-1.184746 -1.078784 3.992877
-1.171186 -1.082048 4.004957
-1.157462 -1.085255 4.016828
-1.143059 -1.087912 4.026659
-1.129188 -1.091164 4.038699
-1.114394 -1.093612 4.047759
-1.100331 -1.096867 4.059805
-1.086209 -1.100165 4.072012
-1.071915 -1.103395 4.083967
-1.057370 -1.106468 4.095341
-1.042869 -1.109692 4.107275
-1.030391 -1.115217 4.127723
-1.015290 -1.118045 4.138190
-1.045829 -1.172126 4.338360
-1.067561 -1.218113 4.508569
-1.042912 -1.211897 4.485564
-1.011978 -1.198008 4.434155
-0.986122 -1.189713 4.403456
-0.969662 -1.192653 4.414335
-0.953246 -1.195765 4.425854
-0.938154 -1.200697 4.444109
-0.922817 -1.205512 4.461933
-0.907980 -1.211200 4.482985
-0.892327 -1.216020 4.500825
-0.875918 -1.220001 4.515558
-0.859518 -1.224174 4.531004
-0.842883 -1.228196 4.545890
-0.825730 -1.231637 4.558629
-0.808363 -1.234917 4.570769
-0.791259 -1.238772 4.585035
-0.774409 -1.243230 4.601535
-0.757172 -1.247284 4.616539
-0.740152 -1.251921 4.633703
-0.722882 -1.256381 4.650210
-0.705977 -1.261744 4.670061
-0.688187 -1.265792 4.685044
-0.670762 -1.270776 4.703490
-0.652611 -1.274650 4.717830
-0.634548 -1.278949 4.733742
-0.616146 -1.282825 4.748088
-0.597594 -1.286641 4.762212
-0.578755 -1.290089 4.774974
-0.559935 -1.293834 4.788836
-0.540251 -1.295789 4.796071
-0.520095 -1.296724 4.799530
-0.498913 -1.295071 4.793415
-0.476799 -1.290754 4.777437
-0.454484 -1.285482 4.757920
-0.431980 -1.279154 4.734500
-0.409915 -1.273567 4.713820
-0.387658 -1.266774 4.688680
-0.366460 -1.262891 4.674306
-0.346461 -1.262930 4.674450
-0.327439 -1.266751 4.688593
-0.308352 -1.270806 4.703601
-0.289135 -1.274852 4.718578
-0.269701 -1.278474 4.731984
-0.250312 -1.282919 4.748435
-0.230685 -1.286825 4.762893
-0.211106 -1.291774 4.781212
-0.191236 -1.295820 4.796186
-0.171425 -1.301289 4.816427
-0.151247 -1.305083 4.830472
-0.134528 -1.344649 4.976914
-0.117224 -1.392163 5.152776
-0.095551 -1.397791 5.173610
-0.073697 -1.403371 5.194262
-0.051667 -1.408959 5.214942
-0.029459 -1.414520 5.235528
-0.007068 -1.418673 5.250900
0.015450 -1.422453 5.264888
0.038062 -1.425233 5.275177
0.060801 -1.428938 5.288892
0.083603 -1.431707 5.299141
0.106558 -1.435354 5.312638
0.129633 -1.439054 5.326334
0.152675 -1.441331 5.334761
0.175644 -1.442424 5.338809
0.198672 -1.443689 5.343489
0.221646 -1.444336 5.345885
0.244544 -1.444420 5.346196
0.267404 -1.444281 5.345679
0.290394 -1.444815 5.347655
0.313207 -1.444452 5.346314
0.336004 -1.444068 5.344893
0.358782 -1.443659 5.343379
0.381702 -1.443832 5.344020
0.404778 -1.444547 5.346666
0.427660 -1.444528 5.346594
0.450946 -1.445806 5.351326
0.474265 -1.447062 5.355974
0.498023 -1.449482 5.364929
0.523343 -1.456032 5.389173
0.547971 -1.460183 5.404538
0.569655 -1.456472 5.390802
0.590087 -1.449976 5.366759
0.611018 -1.445144 5.348873
0.632258 -1.441367 5.334896
0.652840 -1.436406 5.316533
0.674113 -1.433246 5.304836
0.696161 -1.431889 5.299813
0.717674 -1.429551 5.291160
0.739485 -1.427929 5.285159
0.761147 -1.426128 5.278491
0.782814 -1.424438 5.272235
0.804091 -1.422153 5.263779
0.825670 -1.420512 5.257706
0.847710 -1.419730 5.254812
0.870573 -1.420332 5.257040
0.893876 -1.421603 5.261742
0.914802 -1.419124 5.252569
0.936897 -1.418533 5.250382
0.962389 -1.422993 5.266890
1.010974 -1.460615 5.406137
1.073107 -1.515686 5.609969
1.120412 -1.547863 5.729064
1.165202 -1.575260 5.830469
1.202165 -1.591148 5.889275
1.234361 -1.600204 5.922795
1.266953 -1.609399 5.956827
1.298098 -1.616429 5.982847
1.326577 -1.619932 5.995812
1.355695 -1.624067 6.011117
1.383670 -1.626703 6.020876
1.409804 -1.627120 6.022418
1.434623 -1.626031 6.018386
1.458771 -1.624232 6.011730
1.482957 -1.622538 6.005459
1.505959 -1.619628 5.994688
1.529586 -1.617476 5.986724
1.553525 -1.615721 5.980226
1.577572 -1.614133 5.974348
1.602940 -1.613925 5.973578
1.626948 -1.612376 5.967845
1.653305 -1.613166 5.970770
1.677743 -1.612089 5.966783
1.703071 -1.611886 5.966032
1.728384 -1.611676 5.965255
1.753554 -1.611339 5.964010
1.777693 -1.610080 5.959348
1.802878 -1.609789 5.958271
1.827585 -1.609086 5.955669
1.852668 -1.608729 5.954347
1.876019 -1.606898 5.947571
1.901077 -1.606558 5.946313
1.926034 -1.606143 5.944777
1.949247 -1.604304 5.937969
1.972676 -1.602687 5.931985
1.997109 -1.601918 5.929137
2.019891 -1.599859 5.921518
2.044723 -1.599455 5.920022
2.067432 -1.597421 5.912493
2.092192 -1.597001 5.910939
2.116621 -1.596342 5.908501
2.141275 -1.595866 5.906738
2.165776 -1.595288 5.904601
2.190518 -1.594900 5.903162
2.214908 -1.594267 5.900819
2.239425 -1.593738 5.898863
2.263494 -1.592906 5.895784
2.287750 -1.592223 5.893253
2.312085 -1.591608 5.890979
2.337147 -1.591503 5.890588
2.363724 -1.592419 5.893981
2.389575 -1.592833 5.895513
2.416764 -1.594120 5.900278
2.441874 -1.594025 5.899924
2.463000 -1.591357 5.890048
2.486001 -1.589941 5.884808
2.517941 -1.594214 5.900624
2.545617 -1.595729 5.906233
2.570677 -1.595591 5.905721
2.595992 -1.595612 5.905799
2.621026 -1.595462 5.905241
2.644750 -1.594524 5.901773
2.667393 -1.592960 5.895981
2.690895 -1.591932 5.892177
2.715474 -1.591555 5.890781
2.741812 -1.592206 5.893192
2.765384 -1.591253 5.889666
2.787686 -1.589594 5.883525
2.822110 -1.594815 5.902848
1.913246 -1.071608 3.966315
1.911515 -1.061221 3.927870
1.925537 -1.059684 3.922183
1.935769 -1.056106 3.908940
1.946558 -1.052891 3.897039
1.959589 -1.050933 3.889793
1.972878 -1.049145 3.883175
1.984851 -1.046694 3.874101
1.996449 -1.044086 3.864450
2.008011 -1.041503 3.854888
2.018074 -1.038190 3.842628
2.027007 -1.034355 3.828433
2.036837 -1.031035 3.816144
2.047855 -1.028365 3.806260
2.057355 -1.024980 3.793734
2.067756 -1.022094 3.783051
2.078498 -1.019420 3.773153
2.087549 -1.015964 3.760363
2.098058 -1.013265 3.750373
2.107523 -1.010107 3.738684
2.116346 -1.006691 3.726041
2.126309 -1.003865 3.715580
2.135869 -1.000891 3.704573
2.143750 -0.997181 3.690839
2.152457 -0.993906 3.678718
2.160762 -0.990494 3.666090
2.169787 -0.987459 3.654857
2.177086 -0.983688 3.640900
2.186068 -0.980726 3.629935
2.194062 -0.977365 3.617495
2.201748 -0.973915 3.604726
2.210044 -0.970781 3.593127
2.218748 -0.967868 3.582345
2.226554 -0.964606 3.570273
2.235903 -0.962053 3.560823
2.243741 -0.958888 3.549109
2.253736 -0.956682 3.540943
2.260994 -0.953351 3.528615
2.270885 -0.951167 3.520531
2.278303 -0.947983 3.508745
2.286579 -0.945195 3.498428
2.294172 -0.942164 3.487206
2.303013 -0.939680 3.478014
2.311518 -0.937092 3.468435
2.321231 -0.935024 3.460781
2.331452 -0.933185 3.453974
-2.210840 -0.851092 3.201612
-2.180389 -0.844605 3.177210
-2.143333 -0.835462 3.142818
-2.085465 -0.818040 3.077280
-2.023254 -0.798682 3.004460
-1.992855 -0.791715 2.978251
-1.980319 -0.791800 2.978570
-1.971566 -0.793409 2.984622
-1.965871 -0.796277 2.995412
-1.956780 -0.797798 3.001134
-1.949582 -0.800117 3.009856
-1.940845 -0.801830 3.016302
-1.932742 -0.803830 3.023825
-1.923470 -0.805368 3.029608
-1.914147 -0.806904 3.035390
-1.906627 -0.809228 3.044130
-1.897201 -0.810768 3.049925
-1.889132 -0.812914 3.057997
-1.879483 -0.814406 3.063607
-1.870716 -0.816303 3.070744
-1.862775 -0.818590 3.079346
-1.853801 -0.820452 3.086351
-1.844420 -0.822159 3.092774
-1.836646 -0.824613 3.102005
-1.827824 -0.826629 3.109587
-1.820076 -0.829163 3.119122
-1.810845 -0.831054 3.126236
-1.801990 -0.833147 3.134110
-1.794063 -0.835705 3.143729
-1.783736 -0.837174 3.149256
-1.774587 -0.839222 3.156961
