ply
format ascii 1.0
comment generated by convert_depth_to_ply.py
element vertex 1603
property float x
property float y
property float z
end_header
1.309373 -8.159117 55.975956
1.391902 -8.158808 55.973835
1.474421 -8.158479 55.971584
1.556930 -8.158133 55.969208
1.636980 -8.145584 55.883114
1.714962 -8.124440 55.738056
1.796554 -8.121552 55.718239
1.878659 -8.121136 55.715385
1.958363 -8.110809 55.644539
2.035781 -8.092228 55.517063
2.114442 -8.079833 55.432026
2.199334 -8.091284 55.510586
2.281088 -8.090784 55.507156
2.366229 -8.101914 55.583511
2.453019 -8.117757 55.692204
2.535010 -8.117203 55.688408
2.616982 -8.116630 55.684475
2.699504 -8.117742 55.692101
2.782126 -8.119081 55.701286
2.874003 -8.146578 55.889935
2.951092 -8.131791 55.788490
3.033345 -8.131652 55.787537
3.115527 -8.131333 55.785347
3.196796 -8.128712 55.767361
3.279843 -8.130628 55.780506
3.367028 -8.142457 55.861664
3.442242 -8.125463 55.745071
3.519012 -8.112850 55.658543
3.605733 -8.123230 55.729752
3.681514 -8.109051 55.632477
3.762566 -8.106846 55.617352
3.844218 -8.106001 55.611557
3.916998 -8.086876 55.480343
3.976275 -8.041224 55.167149
4.041408 -8.009009 54.946136
4.122017 -8.008128 54.940094
4.186215 -7.976014 54.719772
4.266436 -7.975065 54.713264
4.405758 -8.082576 55.450848
4.543445 -8.183221 56.141327
4.634334 -8.197484 56.239178
4.603077 -7.998985 54.877369
4.323345 -7.383027 50.651558
3.981504 -6.683735 45.854042
3.865287 -6.380237 43.771881
3.825947 -6.211525 42.614426
3.893793 -6.219474 42.668961
4.110036 -6.460431 44.322056
4.205021 -6.506225 44.636223
4.270132 -6.505094 44.628468
4.347341 -6.522150 44.745476
4.877631 -7.208268 49.452618
5.910434 -8.605843 59.040741
5.899890 -8.465731 58.079494
5.808005 -8.214583 56.356487
5.890372 -8.213500 56.349056
6.116883 -8.410644 57.701572
6.389495 -8.664895 59.445869
6.189162 -8.279577 56.802380
6.071292 -8.013395 54.976227
6.151252 -8.011900 54.965973
6.627530 -8.519927 58.451309
7.012309 -8.898788 61.050499
7.211987 -9.036122 61.992687
7.362987 -9.109789 62.498081
7.489727 -9.151990 62.787605
7.567082 -9.133552 62.661110
7.217156 -8.606050 59.042160
7.078468 -8.340015 57.217018
7.437809 -8.660125 59.413143
7.794053 -8.969213 61.533653
7.822617 -8.898439 61.048107
7.676453 -8.632781 59.225552
7.625591 -8.479071 58.171017
8.091460 -8.896953 61.037914
8.542349 -9.289347 63.729950
8.683116 -9.339627 64.074898
8.761192 -9.322119 63.954781
8.637330 -9.092407 62.378830
8.554821 -8.910612 61.131618
8.767234 -9.036591 61.995907
9.124321 -9.307549 63.854824
9.238939 -9.328159 63.996216
9.331402 -9.326209 63.982838
9.423807 -9.324241 63.969337
9.520420 -9.326434 63.984383
9.650373 -9.360923 64.221001
9.743004 -9.358892 64.207062
9.869645 -9.389254 64.415367
9.751178 -9.188084 63.035229
9.257982 -8.640960 59.281662
9.327433 -8.624310 59.167431
9.797092 -8.974576 61.570450
10.059039 -9.129883 62.635937
10.206128 -9.179061 62.973328
10.276877 -9.159314 62.837852
10.364546 -9.154867 62.807339
10.454728 -9.152697 62.792454
10.549576 -9.154615 62.805611
10.662541 -9.172083 62.925453
10.790468 -9.202009 63.130764
10.899638 -9.215565 63.223763
10.990201 -9.213292 63.208168
11.080573 -9.210899 63.191750
11.170893 -9.208502 63.175308
11.264107 -9.208511 63.175369
11.356630 -9.207959 63.171585
11.446892 -9.205599 63.155388
11.582239 -9.239240 63.386189
11.672713 -9.236835 63.369686
11.803863 -9.266399 63.572514
11.894509 -9.263952 63.555721
11.985083 -9.261486 63.538807
12.075585 -9.259004 63.521778
12.194605 -9.278258 63.653870
14.479722 -10.932696 75.004211
14.673445 -10.994941 75.431244
14.897160 -11.078552 76.004860
15.110097 -11.152958 76.515327
15.145821 -11.096428 76.127502
15.260688 -11.098286 76.140251
15.315589 -11.056826 75.855812
15.381671 -11.023981 75.630478
15.471420 -11.008449 75.523918
15.516148 -10.961334 75.200684
15.451684 -10.838297 74.356583
15.376021 -10.709195 73.470871
15.467869 -10.697753 73.392372
15.577487 -10.698674 73.398697
15.676036 -10.692033 73.353134
15.676455 -10.619011 72.852165
15.766192 -10.607074 72.770271
15.867943 -10.603328 72.744568
15.963222 -10.595335 72.689735
16.065515 -10.592074 72.667358
16.167716 -10.588795 72.644867
16.277118 -10.590246 72.654816
16.386545 -10.591692 72.664742
16.488134 -10.588087 72.640007
16.590027 -10.584723 72.616928
-13.717147 -8.175113 56.644100
-13.744029 -8.241343 57.102993
-13.665203 -8.244612 57.125645
-13.638733 -8.279705 57.368801
-13.538367 -8.270096 57.302223
-12.651033 -7.776616 53.882977
-12.629950 -7.812749 54.133335
-13.527973 -8.421508 58.351334
-13.499031 -8.457310 58.599396
-13.460436 -8.487486 58.808483
-13.430220 -8.523372 59.057129
-13.388864 -8.552609 59.259712
-13.256851 -8.523941 59.061073
-13.133421 -8.500449 58.898300
-13.046794 -8.500622 58.899498
-13.008613 -8.532574 59.120892
-13.003271 -8.586643 59.495525
-12.880895 -8.563639 59.336132
-6.719441 -4.497871 31.165054
-6.662483 -4.490471 31.113779
-6.392958 -4.338705 30.062216
-10.304480 -7.042190 48.794247
-10.883897 -7.490498 51.900505
-10.741197 -7.444663 51.582920
-10.545539 -7.361207 51.004669
-10.442134 -7.341411 50.867504
-10.769869 -7.626638 52.843800
-11.063832 -7.891935 54.682003
-10.842130 -7.790599 53.979858
-10.558106 -7.642650 52.954742
-10.416137 -7.596091 52.632141
-10.333434 -7.592377 52.606411
-10.210921 -7.559136 52.376087
-10.112180 -7.543120 52.265118
-10.230980 -7.690379 53.285450
-10.682849 -8.092216 56.069721
-10.698395 -8.167233 56.589500
-10.617688 -8.169373 56.604324
-10.594922 -8.216479 56.930717
-10.516401 -8.220755 56.960342
-10.415912 -8.207788 56.870499
-10.312536 -8.192317 56.763302
-10.254964 -8.213278 56.908539
-10.261030 -8.285974 57.412235
-10.276235 -8.367321 57.975876
-10.272020 -8.434088 58.438499
-10.207279 -8.451869 58.561699
-10.183023 -8.503763 58.921261
-10.113479 -8.518403 59.022705
-10.028794 -8.520436 59.036789
-9.944050 -8.522453 59.050762
-9.894998 -8.555365 59.278809
-9.809948 -8.557463 59.293343
-9.748262 -8.580162 59.450623
-9.674453 -8.592507 59.536160
-9.588792 -8.594455 59.549656
-9.503073 -8.596386 59.563034
-9.414619 -8.595856 59.559364
-9.295081 -8.566669 59.357128
-9.182253 -8.543169 59.194302
-9.088343 -8.536987 59.151470
-9.003009 -8.538820 59.164169
-8.917621 -8.540638 59.176762
-8.720013 -8.433952 58.437557
-8.241427 -8.050662 55.781799
-8.097092 -7.989448 55.357651
-8.104610 -8.078346 55.973614
-8.035899 -8.092311 56.070374
-7.979737 -8.119334 56.257614
-7.741472 -7.959690 55.151463
-7.470323 -7.762484 53.785053
-7.360081 -7.730038 53.560242
-7.282465 -7.731527 53.570557
-7.366015 -7.906029 54.779659
-7.353338 -7.979975 55.292019
-7.191960 -7.892398 54.685207
-7.002232 -7.771369 53.846619
-6.946105 -7.797540 54.027954
-7.138557 -8.106607 56.169434
-7.118785 -8.179100 56.671722
-7.063974 -8.212580 56.903702
-6.981635 -8.214476 56.916836
-6.899165 -8.216263 56.929218
-6.840364 -8.246627 57.139610
-6.755950 -8.246486 57.138630
-6.649918 -8.219621 56.952488
-6.568833 -8.223298 56.977962
-6.507504 -8.252123 57.177689
-6.368378 -8.181756 56.690125
-6.101463 -7.943155 55.036896
-5.913766 -7.802638 54.063274
-5.816310 -7.778971 53.899288
-5.780065 -7.837647 54.305851
-5.769818 -7.933722 54.971539
-5.749820 -8.018938 55.561989
-5.705867 -8.072726 55.934673
-5.622879 -8.072055 55.930027
-5.541146 -8.073194 55.937916
-5.485640 -8.113155 56.214798
-5.419755 -8.138757 56.392193
-5.337278 -8.139854 56.399792
-5.254776 -8.140945 56.407356
-5.172253 -8.142041 56.414948
-5.089677 -8.143086 56.422188
-5.007070 -8.144115 56.429321
-4.924432 -8.145128 56.436340
-4.841762 -8.146123 56.443233
-4.759087 -8.147143 56.450298
-4.652571 -8.106660 56.169800
-4.550880 -8.073268 55.938431
-4.433853 -8.010933 55.506523
-4.325419 -7.962070 55.167957
-4.237823 -7.950427 55.087284
-4.147329 -7.932785 54.965046
-4.060374 -7.921344 54.885769
-3.964116 -7.890919 54.674961
-3.853448 -7.829950 54.252514
-3.751129 -7.783718 53.932182
-3.667892 -7.775938 53.878273
-3.613448 -7.830205 54.254284
-3.596212 -7.969385 55.218643
-3.528824 -8.001301 55.439785
-3.447338 -8.002009 55.444691
-3.366356 -8.003949 55.458126
-3.291418 -8.020714 55.574291
-3.215293 -8.035371 55.675846
-3.133410 -8.036026 55.680389
-3.051501 -8.036651 55.684715
-2.976073 -8.054849 55.810806
-2.898111 -8.067029 55.895203
-2.815849 -8.067605 55.899189
-2.733570 -8.068164 55.903065
-2.645017 -8.049664 55.774883
-2.543081 -7.987941 55.347214
-2.458365 -7.978003 55.278351
-2.383855 -8.001642 55.442146
-2.313540 -8.041544 55.718616
-2.231466 -8.042005 55.721813
-2.149823 -8.044116 55.736443
-2.075364 -8.074344 55.945885
-1.992928 -8.074755 55.948730
-1.910479 -8.075144 55.951427
-1.828423 -8.077308 55.966419
-1.752377 -8.107479 56.175472
-1.669571 -8.107819 56.177830
-1.586754 -8.108141 56.180061
-1.503927 -8.108443 56.182156
-1.421092 -8.108731 56.184151
-1.338247 -8.109002 56.186024
-1.255395 -8.109252 56.187759
-1.172534 -8.109487 56.189384
-1.089667 -8.109704 56.190891
-1.006793 -8.109904 56.192272
-0.923631 -8.107611 56.176388
-0.841027 -8.110249 56.194664
-0.755396 -8.081082 55.992569
-0.672800 -8.081210 55.993462
-0.590201 -8.081323 55.994240
-0.507598 -8.081416 55.994888
-0.424992 -8.081493 55.995422
-0.342384 -8.081552 55.995827
-0.259700 -8.079288 55.980141
-0.176491 -8.050932 55.783669
-0.094197 -8.051304 55.786243
-0.011937 -8.079309 55.980286
0.070651 -8.079281 55.980091
0.153195 -8.076953 55.963963
0.235747 -8.076525 55.960995
0.318408 -8.079092 55.978783
0.399707 -8.053169 55.799168
0.483567 -8.078878 55.977299
0.565853 -8.074639 55.947929
0.646367 -8.049396 55.773026
0.728426 -8.046932 55.755955
0.810665 -8.046749 55.754684
0.892898 -8.046546 55.753281
0.975124 -8.046327 55.751759
1.057344 -8.046090 55.750118
1.139557 -8.045837 55.748367
1.221762 -8.045566 55.746490
1.304236 -8.046991 55.756363
1.386146 -8.044972 55.742371
1.468324 -8.044649 55.740131
1.550492 -8.044307 55.737766
1.632650 -8.043951 55.735298
1.712841 -8.034399 55.669113
1.790437 -8.014113 55.528553
1.864964 -7.982459 55.309231
1.946459 -7.982039 55.306316
2.027363 -7.979321 55.287483
2.108807 -7.978860 55.284294
2.190239 -7.978389 55.281029
2.271655 -7.977896 55.277611
2.353335 -7.978331 55.280624
2.435137 -7.979138 55.286217
2.525976 -8.008542 55.489956
2.617534 -8.038309 55.696201
2.699508 -8.037730 55.692192
2.781464 -8.037130 55.688038
2.863400 -8.036512 55.683750
2.945320 -8.035882 55.679390
3.027216 -8.035223 55.674820
3.109097 -8.034559 55.670219
3.190957 -8.033879 55.665508
3.272792 -8.033168 55.660583
3.354606 -8.032445 55.655575
3.436400 -8.031707 55.650463
3.518174 -8.030960 55.645283
3.599925 -8.030194 55.639980
3.681652 -8.029413 55.634563
3.763356 -8.028614 55.629032
3.845025 -8.027776 55.623226
3.916674 -8.006493 55.475754
3.966788 -7.942957 55.035522
4.031569 -7.910750 54.812370
4.107171 -7.900626 54.742218
4.187093 -7.899043 54.731251
4.267331 -7.898102 54.724735
4.389502 -7.973368 55.246239
4.554844 -8.122878 56.282173
4.667909 -8.175477 56.646622
4.670869 -8.036776 55.685585
4.306137 -7.281147 50.449947
3.958765 -6.580051 45.592159
3.864411 -6.315910 43.761967
3.829529 -6.156050 42.654324
3.897962 -6.164756 42.714645
4.052452 -6.307123 43.701080
4.151874 -6.360664 44.072063
4.242198 -6.398833 44.336529
4.330768 -6.433236 44.574902
5.309475 -7.769106 53.830940
5.818607 -8.388621 58.123463
5.910530 -8.397391 58.184231
5.898813 -8.260772 57.237614
5.867211 -8.100555 56.127495
5.930190 -8.073562 55.940464
6.131619 -8.233214 57.046669
6.049290 -8.012687 55.518673
6.025291 -7.874281 54.559681
6.153137 -7.935351 54.982822
6.789641 -8.642283 59.881046
7.068507 -8.881677 61.539768
7.241697 -8.983901 62.248066
7.336375 -8.987384 62.272198
7.339980 -8.880591 61.532249
7.041872 -8.415828 58.311977
6.933308 -8.186075 56.720055
7.264900 -8.475292 58.723991
7.724943 -8.905778 61.706760
7.878792 -8.977349 62.202667
7.955810 -8.960735 62.087555
7.838168 -8.727748 60.473221
7.584515 -8.350261 57.857674
7.608153 -8.283066 57.392090
8.287060 -8.922895 61.825367
8.634982 -9.196293 63.719700
8.755684 -9.224419 63.914577
8.634369 -8.999688 62.357449
8.490465 -8.756399 60.671738
8.720741 -8.900059 61.667141
9.029710 -9.120236 63.192707
9.171551 -9.168833 63.529434
9.262570 -9.166156 63.510880
9.355069 -9.164981 63.502739
9.494572 -9.209421 63.810661
9.610423 -9.230273 63.955139
9.702670 -9.228269 63.941257
9.796664 -9.227951 63.939049
9.507144 -8.869832 61.457703
9.182198 -8.485741 58.796391
9.409620 -8.614533 59.688770
9.975761 -9.048160 62.693306
10.044096 -9.026451 62.542885
10.112593 -9.005281 62.396202
10.199347 -9.000604 62.363800
10.307181 -9.014447 62.459713
10.436677 -9.046822 62.684036
10.547011 -9.062164 62.790337
10.637083 -9.059981 62.775211
10.749732 -9.076899 62.892437
10.862467 -9.093600 63.008152
10.992451 -9.124335 63.221111
11.082840 -9.121963 63.204678
11.173177 -9.119589 63.188225
11.263554 -9.117285 63.172264
11.353860 -9.114963 63.156174
11.444097 -9.112624 63.139965
11.534266 -9.110268 63.123646
11.624364 -9.107895 63.107204
11.717736 -9.108105 63.108654
11.837323 -9.128527 63.250160
11.987524 -9.172054 63.551746
12.078044 -9.169595 63.534710
12.233210 -9.215875 63.855381
12.640529 -9.449956 65.477287
12.996093 -9.642088 66.808540
13.540558 -9.970422 69.083519
14.916727 -10.901690 75.536133
15.343730 -11.130606 77.122253
15.322744 -11.033564 76.449867
15.318690 -10.950044 75.871170
15.327248 -10.876686 75.362885
15.412775 -10.858611 75.237640
15.470694 -10.821482 74.980385
15.405702 -10.699517 74.135307
15.368353 -10.598336 73.434235
15.354979 -10.514987 72.856728
15.457227 -10.511425 72.832047
15.556842 -10.506135 72.795387
15.609231 -10.469241 72.539757
15.704553 -10.461449 72.485771
15.806687 -10.458271 72.463745
15.846702 -10.414310 72.159149
15.944025 -10.408347 72.117836
16.045122 -10.404911 72.094025
16.146450 -10.401669 72.071564
16.247691 -10.398413 72.049004
16.348409 -10.394868 72.024437
16.454134 -10.394531 72.022102
-13.555420 -7.998295 55.976261
-13.529203 -8.031756 56.210442
-13.400712 -8.004541 56.019974
-13.372497 -8.037255 56.248928
-13.025627 -7.877662 55.132011
-12.558049 -7.642603 53.486942
-12.612833 -7.724481 54.059967
-13.213777 -8.144014 56.996082
-13.235416 -8.209593 57.455040
-13.157708 -8.213998 57.485867
-13.179558 -8.281015 57.954884
-13.147770 -8.314985 58.192623
-13.115484 -8.349084 58.431267
-13.033288 -8.351652 58.449242
-12.951016 -8.354205 58.467110
-12.887306 -8.368847 58.569580
-12.865773 -8.411261 58.866413
-12.501691 -8.228780 57.589321
-6.668127 -4.419083 30.927059
-6.633670 -4.426536 30.979221
-6.373528 -4.282452 29.970848
-10.492489 -7.099285 49.684517
-10.855919 -7.396858 51.767090
-10.746289 -7.374037 51.607376
-10.507816 -7.261848 50.822220
-10.390287 -7.232230 50.614941
-10.730910 -7.523392 52.652641
-10.981741 -7.755388 54.276272
-10.816591 -7.694866 53.852707
-10.552713 -7.562693 52.927692
-10.410787 -7.516600 52.605106
-10.323602 -7.509634 52.556355
-10.185339 -7.465126 52.244865
-10.075403 -7.440859 52.075031
-10.255698 -7.632207 53.414185
-10.564412 -7.922826 55.448093
-10.531217 -7.959565 55.705208
-10.451774 -7.961652 55.719814
-10.372268 -7.963723 55.734310
-10.292701 -7.965780 55.748707
-10.213180 -7.967906 55.763588
-10.133595 -7.970017 55.778358
-10.091951 -8.002246 56.003918
-10.051686 -8.036111 56.240921
-9.971752 -8.038561 56.258064
-9.893104 -8.042097 56.282810
-9.872473 -8.093254 56.640835
-9.808627 -8.109555 56.754921
-9.727965 -8.112114 56.772831
-9.707336 -8.165214 57.144451
-9.640046 -8.179652 57.245495
-9.618981 -8.233914 57.625252
-9.574081 -8.268559 57.867710
-9.540597 -8.313776 58.184162
-9.456921 -8.315677 58.197472
-9.397720 -8.339334 58.363029
-9.289395 -8.319432 58.223751
-9.230515 -8.343855 58.394672
-9.190916 -8.386331 58.691944
-9.106320 -8.388167 58.704792
-9.020833 -8.389209 58.712086
-8.935864 -8.390758 58.722923
-8.878071 -8.418105 58.914310
-8.751769 -8.380391 58.650372
-8.212909 -7.942927 55.588772
-8.075656 -7.888963 55.211098
-8.167256 -8.059738 56.406273
-8.102887 -8.078529 56.537781
-8.021085 -8.080149 56.549118
-7.771732 -7.911245 55.367043
-7.446287 -7.660471 53.611996
-7.334906 -7.626900 53.377045
-7.256005 -7.626738 53.375912
-7.367527 -7.828922 54.790901
-7.354847 -7.902146 55.303364
-7.166948 -7.786645 54.495026
-6.976473 -7.665692 53.648533
-6.999272 -7.778997 54.441498
-7.143286 -8.031213 56.206642
-7.118237 -8.097044 56.667362
-7.035875 -8.098472 56.677353
-6.953470 -8.099882 56.687225
-6.871021 -8.101276 56.696980
-6.788530 -8.102654 56.706623
-6.706044 -8.104072 56.716549
-6.623468 -8.105417 56.725960
-6.540914 -8.106822 56.735794
-6.453781 -8.102517 56.705662
-6.166360 -7.843340 54.891804
-5.921480 -7.632094 53.413399
-5.823108 -7.606529 53.234482
-5.745503 -7.607763 53.243118
-5.680596 -7.626079 53.371304
-5.627222 -7.660610 53.612965
-5.618555 -7.757855 54.293541
-5.626783 -7.881577 55.159412
-5.580414 -7.931334 55.507633
-5.525875 -7.970787 55.783749
-5.466053 -8.003699 56.014084
-5.420876 -8.059393 56.403862
-5.338384 -8.060481 56.411476
-5.255864 -8.061563 56.419044
-5.153786 -8.032197 56.213524
-5.071505 -8.033228 56.220745
-4.989193 -8.034244 56.227852
-4.906850 -8.035243 56.234844
-4.824476 -8.036226 56.241722
-4.741898 -8.036896 56.246414
-4.641294 -8.006496 56.033657
-4.558592 -8.006434 56.033222
-4.441593 -7.945019 55.603413
-4.326317 -7.884435 55.179413
-4.228824 -7.854557 54.970310
-4.132018 -7.824811 54.762135
-4.051654 -7.825636 54.767906
-3.949257 -7.783073 54.470024
-3.839197 -7.723324 54.051868
-3.748035 -7.699865 53.887695
-3.661342 -7.684769 53.782047
-3.606942 -7.738286 54.156586
-3.596961 -7.891683 55.230137
-3.523101 -7.908792 55.349876
-3.448055 -7.923988 55.456226
-3.366537 -7.924687 55.461113
-3.284991 -7.925354 55.465782
-3.210687 -7.943973 55.596088
-3.134063 -7.957675 55.691986
-3.052137 -7.958295 55.696320
-2.977205 -7.977686 55.832027
-2.899539 -7.990647 55.922741
-2.817236 -7.991218 55.926735
-2.741775 -8.011811 56.070854
-2.649318 -7.982479 55.865578
-2.546949 -7.920439 55.431385
-2.449590 -7.870380 55.081047
-2.377656 -7.901377 55.297977
-2.314023 -7.963141 55.730236
-2.231932 -7.963599 55.733440
-2.149825 -7.964034 55.736488
-2.067705 -7.964450 55.739395
-1.985816 -7.965830 55.749054
-1.903660 -7.966213 55.751736
-1.826866 -7.990080 55.918770
-1.746078 -7.997907 55.973549
-1.669919 -8.028771 56.189552
-1.587085 -8.029091 56.191788
-1.503265 -8.024179 56.157413
-1.416876 -8.004182 56.017464
-1.333471 -7.999614 55.985497
-1.250782 -7.999015 55.981304
-1.168207 -7.999116 55.982010
-1.081993 -7.972423 55.795197
-0.999655 -7.972240 55.793915
-0.917026 -7.969493 55.774689
-0.834758 -7.969654 55.775818
-0.752485 -7.969798 55.776829
-0.670208 -7.969925 55.777718
-0.587927 -7.970035 55.778488
-0.505580 -7.969154 55.772320
-0.423303 -7.969229 55.772846
-0.341023 -7.969288 55.773254
-0.258742 -7.969330 55.773548
-0.176459 -7.969352 55.773708
-0.094176 -7.969361 55.773766
-0.011893 -7.969349 55.773685
0.070391 -7.969321 55.773487
0.152673 -7.969276 55.773174
0.234954 -7.969214 55.772739
0.317232 -7.969136 55.772190
0.399509 -7.969037 55.771503
0.481782 -7.968925 55.770714
0.564052 -7.968793 55.769794
0.646317 -7.968646 55.768761
0.725827 -7.938384 55.556976
0.807772 -7.938204 55.555714
0.886331 -7.907842 55.343227
0.967856 -7.906841 55.336220
1.049463 -7.906607 55.334579
1.131063 -7.906359 55.332848
1.217402 -7.937036 55.547539
1.302983 -7.959222 55.702808
1.375769 -7.905251 55.325092
1.457202 -7.904224 55.317905
1.538936 -7.904855 55.322323
1.620481 -7.904506 55.319878
1.701808 -7.903170 55.310528
1.783321 -7.902784 55.307827
1.862422 -7.892212 55.233837
1.938959 -7.872117 55.093204
2.020127 -7.871682 55.090160
2.093345 -7.841503 54.878952
2.182422 -7.870762 55.083717
2.263547 -7.870276 55.080318
2.353546 -7.899607 55.285591
2.434950 -7.899088 55.281963
2.516336 -7.898549 55.278191
2.598023 -7.898958 55.281052
2.689698 -7.928784 55.489792
2.776560 -7.943082 55.589851
2.863997 -7.958155 55.695343
2.945934 -7.957533 55.690990
3.027846 -7.956879 55.686409
3.109744 -7.956222 55.681816
3.191622 -7.955549 55.677101
3.273473 -7.954843 55.672165
3.355304 -7.954127 55.667152
3.437115 -7.953397 55.662045
3.518905 -7.952655 55.656853
3.600673 -7.951898 55.651550
3.682418 -7.951123 55.646130
3.764139 -7.950333 55.640598
3.845824 -7.949503 55.634789
3.917489 -7.928427 55.487289
3.967612 -7.865509 55.046955
4.027491 -7.824068 54.756931
4.107661 -7.822899 54.748749
4.187962 -7.822021 54.742607
4.252096 -7.791552 54.529369
4.373296 -7.864840 55.042278
4.551030 -8.035273 56.235054
4.683971 -8.121932 56.841537
4.706055 -8.016699 56.105064
4.348260 -7.279171 50.943459
3.941861 -6.486723 45.397488
3.849064 -6.228194 43.588169
3.828976 -6.093880 42.648170
3.884846 -6.082842 42.570915
4.007342 -6.174818 43.214615
4.118433 -6.246614 43.717083
4.216495 -6.296741 44.067898
4.270462 -6.280495 43.954197
5.535342 -8.018965 56.120926
5.797138 -8.274459 57.909000
5.906361 -8.307921 58.143188
5.968793 -8.275551 57.916649
5.939338 -8.118494 56.817482
5.903443 -7.957129 55.688164
5.916892 -7.865789 55.048916
5.949220 -7.801681 54.600258
5.980351 -7.737737 54.152740
6.201509 -7.918106 55.415058
6.899333 -8.694471 60.848469
7.098814 -8.830952 61.803635
7.188558 -8.829189 61.791294
7.189300 -8.719524 61.023804
6.869491 -8.228601 57.588066
6.845721 -8.099949 56.687695
7.054962 -8.246779 57.715282
7.523133 -8.689168 60.811352
7.669247 -8.753540 61.261864
7.762810 -8.757130 61.286991
7.881201 -8.788324 61.505302
8.047126 -8.871210 62.085377
7.919248 -8.631984 60.411148
7.661647 -8.258258 57.795624
7.744744 -8.255945 57.779434
8.233921 -8.681854 60.760170
8.540572 -8.908207 62.344307
8.512408 -8.784230 61.476646
8.423946 -8.601299 60.196400
8.611929 -8.701505 60.897697
8.915615 -8.915341 62.394234
9.101672 -9.008384 63.045399
9.191631 -9.005394 63.024471
9.294459 -9.014945 63.091312
9.445975 -9.071063 63.484055
9.538747 -9.070220 63.478157
9.655628 -9.092095 63.631248
9.770773 -9.111931 63.770069
9.261864 -8.554963 59.872116
9.159155 -8.380172 58.648838
9.577340 -8.680784 60.752682
9.953815 -8.938368 62.555389
10.019166 -8.914401 62.387653
10.108870 -8.912340 62.373230
10.198511 -8.910262 62.358688
10.288090 -8.908167 62.344025
10.397789 -8.923377 62.450470
10.549153 -8.973762 62.803093
10.639241 -8.971598 62.787949
10.729266 -8.969419 62.772697
10.841700 -8.985850 62.887691
10.951815 -9.000097 62.987400
11.043220 -8.998858 62.978725
11.156579 -9.015379 63.094353
11.223283 -8.994239 62.946404
11.313266 -8.991948 62.930370
11.446410 -9.023721 63.152729
11.536595 -9.021387 63.136395
11.626710 -9.019036 63.119942
11.716757 -9.016670 63.103382
11.806732 -9.014286 63.086700
11.898089 -9.012987 63.077610
12.065222 -9.068663 63.467262
12.235674 -9.125959 63.868244
12.521593 -9.267840 64.861206
12.681077 -9.314699 65.189148
12.788063 -9.322581 65.244308
12.919034 -9.347700 65.420105
13.041544 -9.366369 65.550766
13.181888 -9.397478 65.768478
14.398637 -10.189903 71.314285
15.284466 -10.738339 75.152527
15.428495 -10.761465 75.314377
15.413467 -10.674111 74.703026
15.408784 -10.595110 74.150139
15.261641 -10.419958 72.924332
15.234779 -10.328806 72.286400
15.278348 -10.286339 71.989197
15.379958 -10.283266 71.967690
15.540172 -10.319150 72.218826
15.641985 -10.316029 72.196983
15.743706 -10.312891 72.175018
15.845338 -10.309736 72.152939
15.890972 -10.270432 71.877869
15.930915 -10.227995 71.580872
16.027911 -10.222505 71.542450
16.126423 -10.218047 71.511253
16.224409 -10.213316 71.478142
16.326647 -10.211306 71.464073
-13.343472 -7.794060 55.101032
-13.318313 -7.827048 55.334248
-13.239581 -7.828765 55.346386
-13.110231 -7.800386 55.145756
-12.725371 -7.618679 53.861156
-12.416664 -7.480567 52.884758
-12.501085 -7.579052 53.581005
-12.812748 -7.817436 55.266293
-12.826013 -7.875647 55.677818
-12.747886 -7.878128 55.695362
-12.669686 -7.880596 55.712807
-12.598342 -7.887389 55.760830
-12.610777 -7.947066 56.182728
-12.548286 -7.960005 56.274197
-12.558983 -8.019851 56.697285
-12.578030 -8.085867 57.163998
-12.575112 -8.138560 57.536514
-12.487290 -8.136645 57.522980
-6.616329 -4.340661 30.686819
-6.594937 -4.356436 30.798338
-6.340294 -4.217281 29.814571
-10.654249 -7.136240 50.450493
-10.841922 -7.313032 51.700344
-10.726867 -7.286688 51.514103
-10.460960 -7.156764 50.595592
-10.324013 -7.113834 50.292095
-10.689574 -7.419045 52.449821
-10.910565 -7.627638 53.924492
-10.789724 -7.598563 53.718941
-10.533834 -7.473247 52.833004
-10.371647 -7.413035 52.407333
-10.276723 -7.400357 52.317699
-10.134364 -7.353069 51.983391
-10.037111 -7.338037 51.877121
-10.269063 -7.565301 53.483795
-10.462806 -7.767718 54.914806
-10.407461 -7.786926 55.050598
-10.328952 -7.788968 55.065033
-10.250382 -7.790996 55.079369
-10.171751 -7.793009 55.093601
-10.112837 -7.810282 55.215717
-10.053306 -7.827356 55.336422
-9.974588 -7.829648 55.352627
-9.916527 -7.848328 55.484684
-9.875693 -7.881065 55.716125
-9.812828 -7.896623 55.826111
-9.733242 -7.898874 55.842030
-9.653592 -7.901113 55.857853
-9.610567 -7.933623 56.087692
-9.567007 -7.966254 56.318375
-9.486167 -7.968141 56.331715
-9.405649 -7.970334 56.347225
-9.348778 -7.992784 56.505932
-9.280033 -8.005394 56.595085
-9.222803 -8.028258 56.756721
-9.152507 -8.040062 56.840176
-9.070690 -8.041871 56.852959
-8.988817 -8.043663 56.865627
-8.906889 -8.045439 56.878185
-8.850490 -8.070528 57.055557
-8.811357 -8.111995 57.348709
-8.754599 -8.137882 57.531719
-8.739923 -8.203776 57.997570
-8.644144 -8.194094 57.929119
-8.142786 -7.795916 55.114151
-8.064500 -7.798840 55.134823
-8.175214 -7.986460 56.461227
-8.104395 -7.998777 56.548302
-8.022580 -8.000383 56.559658
-7.746731 -7.806493 55.188931
-7.414958 -7.551529 53.386433
-7.292820 -7.506880 53.070778
-7.227110 -7.519976 53.163361
-7.366488 -7.749099 54.783176
-7.356221 -7.824142 55.313698
-7.166336 -7.707682 54.490372
-6.975531 -7.587579 53.641293
-7.055944 -7.763120 54.882298
-7.145857 -7.953310 56.226871
-7.119020 -8.016500 56.673599
-7.037192 -8.018532 56.687962
-6.954771 -8.019928 56.697834
-6.872308 -8.021310 56.707600
-6.789527 -8.022349 56.714951
-6.707042 -8.023770 56.724991
-6.624710 -8.025411 56.736595
-6.542078 -8.026726 56.745892
-6.404857 -7.960230 56.275791
-6.095306 -7.674996 54.259293
-5.886685 -7.510947 53.099533
-5.789231 -7.486229 52.924786
-5.710462 -7.485325 52.918396
-5.625382 -7.476011 52.852547
-5.563039 -7.497076 53.001469
-5.574419 -7.619512 53.867043
-5.600598 -7.766009 54.902721
-5.563806 -7.828206 55.342434
-5.504839 -7.860593 55.571396
-5.461536 -7.916664 55.967796
-5.384718 -7.925129 56.027637
-5.318356 -7.949487 56.199841
-5.215945 -7.919880 55.990528
-5.134033 -7.920946 55.998070
-5.052068 -7.921965 56.005268
-4.970071 -7.922966 56.012348
-4.888044 -7.923952 56.019321
-4.805986 -7.924921 56.026169
-4.723921 -7.925913 56.033184
-4.641737 -7.926736 56.038998
-4.541812 -7.896743 55.826962
-4.442636 -7.866969 55.616474
-4.337631 -7.825558 55.323711
-4.239504 -7.795206 55.109135
-4.132799 -7.747586 54.772480
-4.045492 -7.735156 54.684601
-3.934264 -7.675553 54.263233
-3.831182 -7.629694 53.939026
-3.741247 -7.608628 53.790100
-3.654698 -7.593685 53.684460
-3.603835 -7.653870 54.109940
-3.597569 -7.813642 55.239471
-3.523486 -7.830115 55.355927
-3.448642 -7.845637 55.465660
-3.367174 -7.846479 55.471611
-3.298339 -7.877532 55.691147
-3.216441 -7.878179 55.695724
-3.134529 -7.878823 55.700272
-3.052715 -7.879756 55.706867
-2.970756 -7.880353 55.711090
-2.888782 -7.880945 55.715279
-2.806785 -7.881508 55.719257
-2.724771 -7.882055 55.723122
-2.642743 -7.882595 55.726940
-2.543990 -7.831680 55.366993
-2.440205 -7.761381 54.870007
-2.372048 -7.803469 55.167553
-2.302704 -7.844504 55.457653
-2.232329 -7.884918 55.743362
-2.150145 -7.885120 55.744793
-2.068097 -7.885852 55.749969
-1.985950 -7.886254 55.752811
-1.903789 -7.886635 55.755501
-1.821616 -7.886997 55.758060
-1.739432 -7.887345 55.760521
-1.663657 -7.918226 55.978836
-1.581133 -7.918540 55.981060
-1.492818 -7.888284 55.767162
-1.410595 -7.888565 55.769146
-1.328362 -7.888827 55.770996
-1.246122 -7.889072 55.772728
-1.163873 -7.889300 55.774342
-1.081618 -7.889512 55.775841
-0.999356 -7.889705 55.777203
-0.917088 -7.889883 55.778465
-0.834814 -7.890042 55.779587
-0.752536 -7.890185 55.780602
-0.670253 -7.890312 55.781494
-0.587967 -7.890421 55.782269
-0.505676 -7.890512 55.782913
-0.423366 -7.890267 55.781178
-0.339758 -7.859882 55.566368
-0.257772 -7.859604 55.564404
-0.175798 -7.859627 55.564568
-0.093823 -7.859634 55.564617
-0.011848 -7.859624 55.564545
0.070127 -7.859598 55.564358
0.152100 -7.859553 55.564041
0.234073 -7.859491 55.563606
0.316043 -7.859413 55.563053
0.398011 -7.859318 55.562378
0.479975 -7.859205 55.561584
0.561632 -7.854811 55.530518
0.641409 -7.828608 55.345276
0.723046 -7.828445 55.344124
0.804677 -7.828267 55.342861
0.886266 -7.827752 55.339218
0.967882 -7.827538 55.337708
1.049492 -7.827307 55.336079
1.131094 -7.827061 55.334339
1.212700 -7.826874 55.333012
1.294326 -7.826833 55.332722
1.369068 -7.787634 55.055599
1.444467 -7.756356 54.834476
1.522759 -7.743107 54.740814
1.607868 -7.764109 54.889290
1.688816 -7.763967 54.888283
1.769706 -7.763587 54.885601
1.850585 -7.763189 54.882786
1.931452 -7.762779 54.879890
2.012305 -7.762350 54.876854
2.093060 -7.761588 54.871464
2.173971 -7.761442 54.870438
2.254874 -7.761278 54.869274
2.335673 -7.760779 54.865749
2.420466 -7.773139 54.953125
2.511222 -7.803229 55.165855
2.598140 -7.819875 55.283535
2.679567 -7.819487 55.280788
2.760916 -7.818901 55.276649
2.853256 -7.848580 55.486465
2.934885 -7.847965 55.482121
3.016491 -7.847321 55.477566
3.098207 -7.846992 55.475239
3.192097 -7.876716 55.685379
3.274092 -7.876338 55.682705
3.355939 -7.875628 55.677689
3.437765 -7.874904 55.672569
3.519571 -7.874170 55.667381
3.601354 -7.873420 55.662075
3.683114 -7.872652 55.656651
3.764850 -7.871869 55.651112
3.846551 -7.871048 55.645306
3.908266 -7.830217 55.356651
3.958023 -7.767593 54.913918
4.028093 -7.746545 54.765118
4.108436 -7.745692 54.759090
4.177220 -7.723499 54.602196
4.235800 -7.683638 54.320389
4.373944 -7.786902 55.050426
4.538598 -7.932739 56.081436
4.680359 -8.034055 56.797703
4.735642 -7.985975 56.457794
4.414843 -7.316311 51.723530
3.906867 -6.364483 44.994469
3.823681 -6.124901 43.300716
3.814632 -6.009999 42.488400
3.869852 -5.998431 42.406616
3.974549 -6.062700 42.860977
4.071681 -6.113599 43.220814
4.175709 -6.173123 43.641628
4.253215 -6.192226 43.776676
5.641719 -8.090882 57.199451
5.774961 -8.159913 57.687473
5.882206 -8.190739 57.905403
5.992255 -8.224532 58.144302
6.032641 -8.163106 57.710045
5.885674 -7.853399 55.520538
5.891783 -7.753645 54.815311
5.924943 -7.691708 54.377445
5.980521 -7.660142 54.154285
6.253096 -7.903683 55.876022
6.901720 -8.610014 60.869518
7.042203 -8.672429 61.310764
7.014697 -8.529006 60.296822
6.726104 -8.075701 57.092125
6.709936 -7.956652 56.250492
6.913899 -8.098352 57.252262
7.323028 -8.474046 59.908276
7.520606 -8.598897 60.790924
7.609122 -8.597576 60.781586
7.697385 -8.596003 60.770466
7.820011 -8.632399 61.027771
7.939953 -8.665038 61.258514
8.019200 -8.653030 61.173622
7.977541 -8.512279 60.178566
7.877833 -8.313368 58.772343
7.911966 -8.258491 58.384384
8.057913 -8.320251 58.821003
8.142553 -8.318065 58.805550
8.195910 -8.284306 58.566883
8.329169 -8.331173 58.898212
8.666190 -8.578778 60.648685
8.969060 -8.787861 62.126823
9.119682 -8.845050 62.531132
9.210364 -8.843543 62.520473
9.348696 -8.887363 62.830265
9.477145 -8.921020 63.068211
9.656644 -9.001609 63.637943
9.677177 -8.933891 63.159203
9.050045 -8.275248 58.502846
9.130500 -8.269945 58.465355
9.687988 -8.692770 61.454567
9.914990 -8.813967 62.311386
10.004544 -8.811876 62.296604
10.071322 -8.789944 62.141552
10.199983 -8.821931 62.367687
10.289991 -8.820214 62.355549
10.379523 -8.818122 62.340759
10.488582 -8.832511 62.442486
10.640985 -8.882832 62.798237
10.731246 -8.880858 62.784279
10.821220 -8.878682 62.768898
10.911128 -8.876489 62.753395
11.000848 -8.874182 62.737080
11.133469 -8.906232 62.963661
11.180218 -8.869626 62.704872
11.269854 -8.867365 62.688892
11.359422 -8.865088 62.672794
11.493264 -8.897122 62.899258
11.583329 -8.895025 62.884434
11.673221 -8.892829 62.868908
11.808725 -8.925142 63.097351
11.898816 -8.922895 63.081463
11.988664 -8.920501 63.064541
12.237577 -9.035590 63.878178
12.489733 -9.151296 64.696175
12.631584 -9.185039 64.934723
12.738830 -9.193300 64.993126
12.831296 -9.190851 64.975815
12.923539 -9.188280 64.957634
13.066113 -9.221267 65.190842
13.210057 -9.254732 65.427429
13.383666 -9.308344 65.806442
13.678103 -9.444614 66.769821
14.622143 -10.024273 70.867790
15.013385 -10.219419 72.247398
14.964349 -10.114236 71.503792
14.948958 -10.033105 70.930229
15.099325 -10.063579 71.145668
15.200443 -10.061036 71.127686
15.413533 -10.132131 71.630302
15.521816 -10.133833 71.642334
15.622751 -10.130746 71.620514
15.668049 -10.091866 71.345642
15.705623 -10.048561 71.039497
15.801086 -10.042624 70.997520
15.900868 -10.039492 70.975380
16.000562 -10.036345 70.953133
16.099747 -10.032922 70.928932
16.199888 -10.030136 70.909233
-13.137695 -7.595909 54.251289
-13.113535 -7.628414 54.483448
-13.083689 -7.657992 54.694698
-12.903279 -7.599264 54.275249
-12.529069 -7.424953 53.030289
-12.320430 -7.347188 52.474880
-12.403693 -7.443614 53.163570
-12.659652 -7.645564 54.605930
-12.628347 -7.675501 54.819748
-12.600287 -7.707810 55.050503
-12.522993 -7.710224 55.067749
-12.492165 -7.741467 55.290886
-12.416597 -7.745211 55.317627
-12.346784 -7.752619 55.370537
-12.317024 -7.785442 55.604965
-12.317390 -7.837875 55.979454
-12.263461 -7.856234 56.110577
-12.128553 -7.822614 55.870453
-6.569592 -4.266216 30.470049
-6.531166 -4.270484 30.500528
-6.300376 -4.148158 29.626858
-10.977039 -7.277755 51.978981
-10.784613 -7.200479 51.427063
-10.686277 -7.185374 51.319180
-10.414982 -7.052927 50.373215
-10.252128 -6.992539 49.941914
-10.599620 -7.281881 52.008450
-10.810923 -7.481201 53.432022
-10.697534 -7.457109 53.259956
-10.472831 -7.354491 52.527042
-10.331756 -7.309509 52.205769
-10.210576 -7.278032 51.980953
-10.084043 -7.242233 51.725277
-9.995901 -7.233672 51.664127
-10.224574 -7.456007 53.252083
-10.383162 -7.630283 54.496792
-10.326836 -7.648111 54.624126
-10.248937 -7.650118 54.638458
-10.170976 -7.652110 54.652687
-10.092955 -7.654088 54.666817
-10.014979 -7.656133 54.681419
-9.973813 -7.686579 54.898872
-9.896377 -7.689342 54.918606
-9.819830 -7.692848 54.943645
-9.762094 -7.711272 55.075230
-9.719608 -7.742151 55.295776
-9.657024 -7.757409 55.404751
-9.578428 -7.759955 55.422935
-9.498948 -7.761823 55.436275
-9.442110 -7.782386 55.583138
-9.376374 -7.795910 55.679733
-9.330910 -7.826678 55.899479
-9.250712 -7.828599 55.913204
-9.170401 -7.830459 55.926487
-9.089972 -7.832252 55.939289
-9.011311 -7.835614 55.963303
-8.955335 -7.858945 56.129940
-8.884786 -7.869805 56.207504
-8.803808 -7.871544 56.219921
-8.746749 -7.894906 56.386780
-8.673758 -7.904198 56.453144
-8.592319 -7.905898 56.465282
-8.570160 -7.962709 56.871037
-8.450087 -7.928769 56.628635
-8.067620 -7.645488 54.605389
-8.009052 -7.666539 54.755741
-8.175195 -7.905312 56.461098
-8.106023 -7.919112 56.559662
-8.022802 -7.919331 56.561222
-7.722265 -7.702786 55.014626
-7.374265 -7.433796 53.093449
-7.251083 -7.388096 52.767052
-7.198439 -7.414055 52.952454
-7.337842 -7.640552 54.570137
-7.352766 -7.741023 55.287716
-7.112492 -7.572061 54.080959
-6.948540 -7.481440 53.433735
-7.107454 -7.740356 55.282951
-7.145816 -7.872472 56.226551
-7.065576 -7.875495 56.248138
-7.009748 -7.906122 56.466881
-6.927649 -7.907500 56.476723
-6.845508 -7.908862 56.486454
-6.738325 -7.880970 56.287247
-6.679832 -7.910040 56.494865
-6.598877 -7.912908 56.515350
-6.518560 -7.916625 56.541897
-6.433251 -7.914298 56.525276
-6.163512 -7.682040 54.866451
-5.844252 -7.381057 52.716782
-5.745426 -7.354111 52.524323
-5.666330 -7.352025 52.509430
-5.582578 -7.343759 52.450390
-5.545049 -7.396919 52.830070
-5.576051 -7.544317 53.882812
-5.602658 -7.689946 54.922916
-5.544319 -7.721545 55.148602
-5.501313 -7.775757 55.535797
-5.462645 -7.837834 55.979156
-5.380796 -7.838908 55.986828
-5.298913 -7.839965 55.994381
-5.217005 -7.841019 56.001904
-5.135077 -7.842076 56.009453
-5.053095 -7.843083 56.016651
-4.971082 -7.844076 56.023743
-4.889038 -7.845053 56.030716
-4.806964 -7.846012 56.037571
-4.724882 -7.846994 56.044582
-4.636356 -7.837116 55.974033
-4.535743 -7.806079 55.752361
-4.443540 -7.788638 55.627796
-4.355663 -7.778264 55.553703
-4.247043 -7.729740 55.207130
-4.126943 -7.658016 54.694866
-4.021353 -7.610894 54.358315
-3.907694 -7.546271 53.896763
-3.813331 -7.517000 53.687710
-3.727118 -7.502894 53.586960
-3.640719 -7.487795 53.479118
-3.599914 -7.567875 54.051067
-3.584094 -7.705299 55.032570
-3.517181 -7.736703 55.256863
-3.435964 -7.737388 55.261753
-3.354732 -7.738070 55.266628
-3.280190 -7.754603 55.384708
-3.192192 -7.739357 55.275822
-3.110897 -7.739990 55.280342
-3.036216 -7.757555 55.405792
-2.959177 -7.769899 55.493958
-2.870975 -7.752801 55.371838
-2.785512 -7.742315 55.296947
-2.710546 -7.761255 55.432217
-2.626089 -7.753348 55.375748
-2.527951 -7.703249 55.017929
-2.433756 -7.662237 54.725014
-2.359735 -7.684103 54.881184
-2.296920 -7.745312 55.318348
-2.223655 -7.774493 55.526768
-2.141853 -7.774918 55.529804
-2.060347 -7.776494 55.541058
-1.985953 -7.806155 55.752899
-1.904179 -7.808117 55.766914
-1.821989 -7.808475 55.769470
-1.739788 -7.808819 55.771931
-1.657577 -7.809148 55.774277
-1.575356 -7.809459 55.776497
-1.493124 -7.809750 55.778580
-1.410884 -7.810028 55.780563
-1.328634 -7.810288 55.782417
-1.246377 -7.810529 55.784145
-1.164112 -7.810756 55.785763
-1.081839 -7.810965 55.787258
-0.999561 -7.811157 55.788624
-0.917260 -7.811199 55.788925
-0.834816 -7.809905 55.779686
-0.752681 -7.811539 55.791355
-0.670254 -7.810172 55.781590
-0.585869 -7.782402 55.583256
-0.503706 -7.779921 55.565536
-0.420189 -7.751508 55.362602
-0.338503 -7.751294 55.361076
-0.256830 -7.751335 55.361366
-0.175155 -7.751358 55.361530
-0.093461 -7.749790 55.350330
-0.011802 -7.749780 55.350262
0.069856 -7.749753 55.350071
0.151514 -7.749709 55.349754
0.233170 -7.749649 55.349323
0.314831 -7.749733 55.349930
0.396476 -7.749477 55.348099
0.478137 -7.749568 55.348751
0.559867 -7.750591 55.356056
0.641410 -7.749095 55.345367
0.720228 -7.718722 55.128441
0.801541 -7.718546 55.127186
0.879585 -7.689823 54.922039
0.960586 -7.689613 54.920536
1.041580 -7.689387 54.918922
1.122567 -7.689145 54.917194
1.204620 -7.695748 54.964359
1.289282 -7.717132 55.117085
1.362657 -7.672424 54.797771
1.433329 -7.618360 54.411640
1.509274 -7.596573 54.256035
1.595468 -7.625967 54.465969
1.676084 -7.627160 54.474491
1.756365 -7.626788 54.471832
1.836634 -7.626397 54.469040
1.916891 -7.625993 54.466156
1.997135 -7.625572 54.463150
2.077365 -7.625131 54.459999
2.157582 -7.624680 54.456776
2.246086 -7.652494 54.655430
2.330355 -7.664451 54.740826
2.416672 -7.682117 54.867001
2.497737 -7.682483 54.869617
2.588071 -7.710440 55.069290
2.674277 -7.724773 55.171658
2.761480 -7.741054 55.287941
2.842828 -7.740458 55.283680
2.924159 -7.739851 55.279350
3.005466 -7.739215 55.274807
3.086758 -7.738575 55.270237
3.180133 -7.767480 55.476681
3.261993 -7.767516 55.476936
3.355942 -7.795632 55.677742
3.437768 -7.794914 55.672619
3.519996 -7.795123 55.674110
3.602089 -7.795027 55.673428
3.683865 -7.794267 55.667999
3.765617 -7.793491 55.662453
3.847335 -7.792677 55.656643
3.909062 -7.752254 55.367931
3.953696 -7.680281 54.853886
4.028914 -7.669414 54.776272
4.097951 -7.647440 54.619331
4.161581 -7.616418 54.397766
4.236662 -7.607132 54.331444
4.357716 -7.679202 54.846180
4.544281 -7.861986 56.151657
4.666825 -7.929445 56.633461
4.760201 -7.945845 56.750591
4.539552 -7.446558 53.184601
3.860990 -6.225853 44.466114
3.784576 -6.000680 42.857887
3.791064 -5.912192 42.225895
3.841168 -5.893485 42.092281
3.943845 -5.954754 42.529877
4.040919 -6.005775 42.894279
4.165949 -6.096131 43.539619
4.300553 -6.197542 44.263912
5.621641 -7.980189 56.995880
5.771865 -8.072691 57.656548
5.857687 -8.073739 57.664036
5.967235 -8.106991 57.901527
6.033716 -8.081621 57.720329
5.931575 -7.834246 55.953529
5.871023 -7.647838 54.622173
5.903752 -7.586343 54.182968
5.981731 -7.583861 54.165241
6.302990 -7.885818 56.321869
6.842684 -8.449650 60.348854
6.735472 -8.210430 58.640305
6.590041 -7.931280 56.646568
6.573220 -7.811969 55.794426
6.689500 -7.851836 56.079166
7.238856 -8.392845 59.943146
7.376024 -8.448667 60.341831
7.463888 -8.447355 60.332462
7.579445 -8.477047 60.544529
7.697373 -8.508668 60.770370
7.787168 -8.508821 60.771461
7.875351 -8.507230 60.760098
7.993029 -8.537175 60.973976
8.111720 -8.567527 61.190750
8.140945 -8.503755 60.735283
8.153983 -8.424648 60.170288
8.048732 -8.226347 58.753983
8.072638 -8.162870 58.300625
8.132439 -8.136647 58.113331
8.265002 -8.183010 58.444462
8.543463 -8.371375 59.789799
8.841134 -8.574521 61.240704
8.977966 -8.619147 61.559429
9.113902 -8.662027 61.865685
9.240247 -8.695031 62.101410
9.403490 -8.761768 62.578053
9.576899 -8.836586 63.112419
9.246295 -8.449391 60.347004
8.937409 -8.089237 57.774723
9.201941 -8.249985 58.922810
9.721057 -8.633835 61.664333
9.855922 -8.672456 61.940170
9.966582 -8.689265 62.060223
10.034059 -8.668461 61.911636
10.162655 -8.700357 62.139446
10.292042 -8.732354 62.367977
10.381591 -8.730283 62.353180
10.471075 -8.728194 62.338261
10.600731 -8.759335 62.560680
10.732297 -8.791503 62.790428
10.823371 -8.790236 62.781376
10.913296 -8.788064 62.765865
11.003032 -8.785778 62.749535
11.092716 -8.783489 62.733189
11.182437 -8.781266 62.717316
11.272089 -8.779027 62.701321
11.361673 -8.776772 62.685215
11.451189 -8.774501 62.668995
11.540635 -8.772213 62.652653
11.658601 -8.791467 62.790169
11.794684 -8.823972 63.022327
11.901168 -8.833998 63.093933
11.991031 -8.831626 63.076996
12.159503 -8.886742 63.470642
12.443068 -9.024489 64.454453
12.550644 -9.033476 64.518639
12.642336 -9.030980 64.500816
12.768351 -9.052858 64.657066
12.923458 -9.094884 64.957230
13.017611 -9.093712 64.948853
13.110367 -9.091587 64.933678
13.240504 -9.115228 65.102524
13.395886 -9.155782 65.392174
13.583811 -9.217841 65.835403
13.792020 -9.292684 66.369949
14.080968 -9.420489 67.282753
14.343667 -9.529066 68.058228
14.618869 -9.644382 68.881836
14.941202 -9.788985 69.914612
15.166434 -9.868424 70.481979
15.279201 -9.874100 70.522522
15.378560 -9.871094 70.501053
15.474973 -9.866250 70.466454
15.459907 -9.790870 69.928078
15.554100 -9.785225 69.887764
15.652324 -9.782175 69.865974
15.750455 -9.779106 69.844055
15.851297 -9.777749 69.834366
16.070534 -9.848969 70.343033
-13.035539 -7.459497 53.829445
-12.965126 -7.464679 53.866844
-12.889752 -7.467052 53.883968
-12.753903 -7.434204 53.646927
-12.383769 -7.263529 52.415295
-12.198837 -7.200019 51.956997
-12.278851 -7.293072 52.628487
-12.504086 -7.474112 53.934914
-12.526094 -7.535218 54.375870
-12.507739 -7.572674 54.646160
-12.475135 -7.601934 54.857304
-12.402018 -7.606727 54.891891
-12.324853 -7.609083 54.908897
-12.298282 -7.642914 55.153023
-12.257609 -7.668372 55.336739
-12.186081 -7.674740 55.382690
-12.083535 -7.661527 55.287338
-11.807501 -7.537387 54.391518
-6.549535 -4.209542 30.377024
-6.467619 -4.185532 30.203764
-6.265442 -4.082822 29.462585
-11.319823 -7.427999 53.602150
-10.701027 -7.071349 51.028481
-10.623668 -7.069967 51.018509
-10.375218 -6.953893 50.180893
-10.208143 -6.891084 49.727650
-10.510339 -7.146444 51.570381
-10.712074 -7.336721 52.943466
-10.589161 -7.305809 52.720398
-10.398687 -7.227481 52.155167
-10.272048 -7.192684 51.904064
-10.170393 -7.174990 51.776382
-10.034934 -7.133001 51.473373
-9.976474 -7.145520 51.563717
-10.184620 -7.350652 53.043995
-10.319780 -7.505876 54.164127
-10.283173 -7.537616 54.393169
-10.205603 -7.539593 54.407440
-10.127973 -7.541558 54.421616
-10.050283 -7.543508 54.435688
-9.972637 -7.545523 54.450233
-9.894929 -7.547524 54.464668
-9.820634 -7.552182 54.498283
-9.746236 -7.556837 54.531876
-9.687159 -7.573548 54.652462
-9.643415 -7.602627 54.862309
-9.583019 -7.618960 54.980167
-9.504214 -7.620810 54.993519
-9.425352 -7.622646 55.006771
-9.346433 -7.624468 55.019913
-9.269587 -7.628027 55.045597
-9.212673 -7.648197 55.191147
-9.145108 -7.659804 55.274910
-9.087126 -7.679720 55.418629
-9.018090 -7.690570 55.496925
-8.938243 -7.692316 55.509525
-8.858342 -7.694047 55.522015
-8.778388 -7.695763 55.534397
-8.698380 -7.697465 55.546677
-8.621459 -7.701956 55.579086
-8.541317 -7.703628 55.591152
-8.487202 -7.729035 55.774494
-8.445925 -7.766745 56.046619
-8.311180 -7.718399 55.697742
-7.982099 -7.486810 54.026543
-7.965916 -7.546992 54.460831
-8.108914 -7.760747 56.003334
-8.038671 -7.772717 56.089714
-7.957520 -7.774279 56.100983
-7.663140 -7.565365 54.593414
-7.330871 -7.314210 52.781021
-7.209423 -7.270263 52.463890
-7.158451 -7.297203 52.658298
-7.307000 -7.530354 54.340771
-7.296572 -7.603025 54.865177
-7.060116 -7.439163 53.682713
-6.922209 -7.376601 53.231247
-7.051806 -7.600937 54.850113
-7.087313 -7.727889 55.766224
-7.006889 -7.729927 55.780933
-6.928340 -7.734108 55.811100
-6.847195 -7.735456 55.820831
-6.763543 -7.733971 55.810116
-6.682344 -7.735289 55.819622
-6.601149 -7.736643 55.829399
-6.522242 -7.740749 55.859024
-6.463927 -7.769710 56.068016
-6.404987 -7.798661 56.276936
-6.266054 -7.729695 55.779259
-5.887502 -7.359370 53.106911
-5.734216 -7.264435 52.421837
-5.650352 -7.256055 52.361362
-5.614721 -7.310241 52.752380
-5.606730 -7.402443 53.417728
-5.624263 -7.531453 54.348698
-5.620593 -7.635391 55.098736
-5.540127 -7.636522 55.106903
-5.499269 -7.693098 55.515163
-5.463742 -7.758955 55.990402
-5.381877 -7.760018 55.998077
-5.299978 -7.761066 56.005638
-5.218053 -7.762108 56.013161
-5.136109 -7.763155 56.020710
-5.054112 -7.764154 56.027924
-4.972082 -7.765136 56.035011
-4.890022 -7.766103 56.041985
-4.807931 -7.767054 56.048847
-4.724106 -7.765187 56.035374
-4.624982 -7.737657 55.836716
-4.526004 -7.709380 55.632660
-4.444436 -7.710260 55.639008
-4.362839 -7.711122 55.645229
-4.259384 -7.672643 55.367558
-4.153423 -7.628057 55.045815
-4.009956 -7.511436 54.204250
-3.892707 -7.440180 53.690048
-3.798922 -7.411743 53.484840
-3.709207 -7.390208 53.329445
-3.623751 -7.376410 53.229874
-3.575933 -7.440313 53.691013
-3.563530 -7.582466 54.716816
-3.490514 -7.599248 54.837921
-3.422008 -7.626876 55.037292
-3.347515 -7.642182 55.147743
-3.272404 -7.656803 55.253250
-3.191670 -7.658678 55.266781
-3.110389 -7.659304 55.271301
-3.029083 -7.659902 55.275612
-2.947757 -7.660481 55.279797
-2.866418 -7.661058 55.283955
-2.785057 -7.661606 55.287910
-2.704311 -7.663932 55.304699
-2.622618 -7.663636 55.302559
-2.521408 -7.604457 54.875515
-2.422200 -7.547591 54.465157
-2.354679 -7.588946 54.763584
-2.294726 -7.658501 55.265503
-2.215884 -7.667815 55.332718
-2.134368 -7.668235 55.335751
-2.052838 -7.668636 55.338642
-1.978289 -7.696228 55.537754
-1.896976 -7.698755 55.555988
-1.815106 -7.699143 55.558788
-1.738217 -7.721701 55.721573
-1.657307 -7.727743 55.765175
-1.575099 -7.728052 55.767399
-1.492880 -7.728340 55.769482
-1.410654 -7.728616 55.771469
-1.324412 -7.705568 55.605152
-1.241769 -7.701794 55.577919
-1.159808 -7.702019 55.579540
-1.077840 -7.702226 55.581032
-0.995537 -7.699871 55.564041
-0.913551 -7.699772 55.563324
-0.831595 -7.699928 55.564453
-0.749634 -7.700068 55.565460
-0.667668 -7.700191 55.566349
-0.583629 -7.673082 55.370724
-0.501946 -7.673172 55.371372
-0.420108 -7.670466 55.351849
-0.337128 -7.640590 55.136253
-0.255773 -7.640209 55.133503
-0.173827 -7.613648 54.941837
-0.092771 -7.613654 54.941879
-0.011715 -7.613644 54.941811
0.069341 -7.613618 54.941620
0.150396 -7.613575 54.941307
0.231449 -7.613515 54.940876
0.312501 -7.613439 54.940331
0.393550 -7.613347 54.939667
0.474596 -7.613238 54.938877
0.555639 -7.613112 54.937969
0.636677 -7.612971 54.936951
0.717711 -7.612812 54.935806
0.798740 -7.612639 54.934551
0.879442 -7.609663 54.913082
0.960429 -7.609456 54.911587
1.041410 -7.609232 54.909966
1.122384 -7.608992 54.908237
1.203790 -7.611518 54.926464
1.284777 -7.611244 54.924488
1.353593 -7.543176 54.433292
1.423002 -7.485853 54.019634
