ply
format ascii 1.0
comment generated by convert_depth_to_ply.py
element vertex 1478
property float x
property float y
property float z
end_header
15.701917 -41.658267 206.194244
16.045727 -41.652884 206.167603
16.389458 -41.647527 206.141083
16.732973 -41.641854 206.113007
17.076435 -41.636281 206.085419
17.419665 -41.630374 206.056183
17.762844 -41.624578 206.027496
18.105786 -41.618459 205.997208
18.448674 -41.612447 205.967453
18.791308 -41.606094 205.936005
19.133894 -41.599863 205.905167
19.488331 -41.619165 206.000702
19.896056 -41.749613 206.646378
20.239391 -41.742791 206.612610
20.582679 -41.736105 206.579514
20.925675 -41.729057 206.544632
21.268628 -41.722155 206.510468
21.611273 -41.714879 206.474457
22.030409 -41.853149 207.158844
22.383565 -41.863723 207.211182
22.727025 -41.856118 207.173538
23.070424 -41.848630 207.136475
23.413503 -41.840793 207.097687
23.756531 -41.833095 207.059586
24.099223 -41.825037 207.019699
24.441874 -41.817136 206.980591
24.784159 -41.808840 206.939529
25.126423 -41.800738 206.899429
25.468298 -41.792218 206.857254
25.810526 -41.784498 206.819046
26.254163 -41.938977 207.583664
26.596746 -41.930099 207.539719
26.965523 -41.962212 207.698669
27.388060 -42.076097 208.262360
27.731721 -42.067462 208.219620
28.074757 -42.058106 208.173309
28.417567 -42.048645 208.126480
28.760198 -42.039153 208.079498
29.102961 -42.030077 208.034576
29.445073 -42.020289 207.986130
29.786944 -42.010390 207.937134
30.128666 -42.000513 207.888245
30.470484 -41.990993 207.841125
30.816477 -41.987377 207.823227
31.274453 -42.134713 208.552490
31.616558 -42.124407 208.501480
31.958721 -42.114404 208.451965
32.426613 -42.268506 209.214722
32.769161 -42.257670 209.161087
33.111609 -42.246936 209.107956
33.454076 -42.236452 209.056061
33.795831 -42.225295 209.000839
34.137314 -42.214030 208.945084
34.614131 -42.368648 209.710388
34.956405 -42.357128 209.653366
35.436557 -42.511240 210.416168
35.779606 -42.499460 210.357864
36.123091 -42.488424 210.303238
36.465581 -42.476441 210.243927
36.807775 -42.464347 210.184067
37.226922 -42.540418 210.560593
37.638796 -42.606828 210.889297
37.981453 -42.594376 210.827667
38.407999 -42.675365 211.228531
38.817191 -42.735766 211.527496
39.161102 -42.723854 211.468536
39.503887 -42.710937 211.404602
39.846353 -42.697909 211.340118
40.188966 -42.685266 211.277542
40.531243 -42.672491 211.214310
40.872776 -42.659161 211.148331
41.213984 -42.645723 211.081818
41.573604 -42.651405 211.109940
42.004866 -42.729868 211.498306
42.347652 -42.717768 211.438416
42.743181 -42.758631 211.640671
43.084709 -42.745245 211.574417
43.425680 -42.731530 211.506531
43.765934 -42.717337 211.436279
44.105840 -42.703036 211.365494
44.446116 -42.689317 211.297592
44.645650 -42.541707 210.566971
44.959439 -42.504430 210.382462
45.285882 -42.479604 210.259583
45.496592 -42.347438 209.605408
45.676984 -42.189297 208.822662
45.936298 -42.105904 208.409897
46.233771 -42.058485 208.175186
46.603533 -42.077043 208.267044
46.964322 -42.087284 208.317734
47.668083 -42.402460 209.877747
47.973290 -42.361086 209.672958
48.617591 -42.617559 210.942413
49.023744 -42.663077 211.167709
49.359652 -42.647249 211.089371
49.695179 -42.631321 211.010529
50.201185 -42.760829 211.651550
50.761499 -42.934452 212.510925
51.098529 -42.918116 212.430069
51.436442 -42.902742 212.353973
52.012347 -43.084723 213.254715
52.517425 -43.205948 213.854736
52.855635 -43.189177 213.771729
53.193343 -43.172225 213.687820
53.732954 -43.318269 214.410690
54.288410 -43.475060 215.186752
54.632254 -43.461437 215.119324
-59.694877 -42.515786 212.324463
-59.631726 -42.725730 213.372925
-59.254517 -42.711831 213.303513
-58.697566 -42.567414 212.582291
-58.365732 -42.585483 212.672531
-58.033470 -42.603461 212.762314
-57.475567 -42.454990 212.020844
-57.123535 -42.457685 212.034302
-56.589972 -42.324643 211.369888
-56.258586 -42.342089 211.457016
-55.923956 -42.357299 211.532974
-55.591816 -42.374602 211.619385
-55.259283 -42.391825 211.705399
-54.925804 -42.408541 211.788879
-54.592419 -42.425548 211.873810
-54.258616 -42.442450 211.958221
-53.881709 -42.425636 211.874252
-53.380895 -42.310389 211.298706
-52.838129 -42.160127 210.548294
-52.506166 -42.177176 210.633438
-52.171941 -42.192627 210.710602
-51.838429 -42.208870 210.791718
-51.504530 -42.225018 210.872360
-51.169849 -42.240744 210.950897
-50.834213 -42.255896 211.026566
-50.323346 -42.124577 210.370758
-49.968198 -42.122674 210.361252
-49.632408 -42.137178 210.433685
-49.135405 -42.014041 209.818741
-48.771467 -42.003729 209.767242
-48.437190 -42.018997 209.843491
-48.101317 -42.033095 209.913895
-47.766333 -42.048183 209.989243
-47.430975 -42.063163 210.064056
-47.095257 -42.078046 210.138382
-46.591661 -41.942028 209.459106
-46.240627 -41.942325 209.460587
-45.905173 -41.956865 209.533203
-45.497688 -41.905287 209.275620
-45.055776 -41.820951 208.854446
-44.720601 -41.835144 208.925323
-44.385081 -41.849235 208.995697
-44.048672 -41.862707 209.062973
-43.712000 -41.876141 209.130066
-43.375475 -41.889936 209.198959
-43.038623 -41.903637 209.267380
-42.700868 -41.916677 209.332504
-42.362951 -41.929773 209.397903
-41.861278 -41.779651 208.648193
-41.524437 -41.792896 208.714340
-41.186707 -41.805463 208.777100
-40.848900 -41.818168 208.840546
-40.353175 -41.668028 208.090744
-40.016398 -41.680827 208.154663
-39.678725 -41.692911 208.215012
-39.341056 -41.705212 208.276443
-39.003359 -41.717706 208.338837
-38.665355 -41.730092 208.400696
-38.326251 -41.741507 208.457703
-37.987661 -41.753699 208.518585
-37.648769 -41.765780 208.578918
-37.309581 -41.777757 208.638733
-36.830226 -41.631522 207.908432
-36.486792 -41.637599 207.938782
-36.148072 -41.649225 207.996841
-35.691267 -41.523696 207.369949
-35.330806 -41.508886 207.295990
-34.992576 -41.520161 207.352295
-34.654062 -41.531322 207.408035
-34.315276 -41.542380 207.463257
-33.975585 -41.552557 207.514084
-33.636268 -41.563407 207.568268
-33.296685 -41.574153 207.621933
-32.956293 -41.584105 207.671631
-32.616146 -41.594582 207.723953
-32.275786 -41.605010 207.776031
-31.935169 -41.615331 207.827576
-31.471258 -41.463440 207.069031
-31.130794 -41.472616 207.114853
-30.790768 -41.482588 207.164658
-30.450488 -41.492442 207.213867
-30.010135 -41.364588 206.575363
-29.652659 -41.349314 206.499084
-29.313000 -41.358820 206.546555
-28.973101 -41.368209 206.593445
-28.632521 -41.376841 206.636551
-28.292167 -41.386016 206.682373
-27.951590 -41.395087 206.727676
-27.610748 -41.403991 206.772141
-27.269355 -41.412283 206.813553
-26.928117 -41.421028 206.857224
-26.586668 -41.429672 206.900391
-26.244970 -41.438151 206.942734
-25.902904 -41.446269 206.983276
-25.560668 -41.454332 207.023544
-25.218351 -41.462484 207.064255
-24.875724 -41.470345 207.103516
-24.532999 -41.478265 207.143066
-24.189986 -41.485919 207.181290
-23.846869 -41.493615 207.219727
-23.503482 -41.501062 207.256912
-23.159986 -41.508535 207.294235
-22.816234 -41.515773 207.330383
-22.472365 -41.523018 207.366562
-22.106193 -41.488632 207.194839
-21.712286 -41.400263 206.753525
-21.364772 -41.398922 206.746826
-21.021158 -41.405219 206.778275
-20.669327 -41.395271 206.728592
-20.325686 -41.401666 206.760529
-19.981997 -41.408183 206.793076
-19.608131 -41.351291 206.508957
-19.218806 -41.259164 206.048874
-18.875883 -41.265104 206.078537
-18.532908 -41.271151 206.108734
-18.189691 -41.276877 206.137329
-17.846417 -41.282694 206.166382
-17.502914 -41.288200 206.193878
-17.159358 -41.293800 206.221848
-16.815581 -41.299089 206.248260
-16.471710 -41.304363 206.274597
-16.127710 -41.309536 206.300430
-15.783578 -41.314586 206.325653
-15.439322 -41.319533 206.350357
-15.094939 -41.324361 206.374466
-14.722996 -41.252192 206.014053
-14.358430 -41.197723 205.742035
-14.014835 -41.202221 205.764496
-13.662764 -41.181401 205.660522
-13.319157 -41.185672 205.681854
-12.932758 -41.054332 205.025940
-12.585137 -41.042276 204.965729
-12.239791 -41.037170 204.940231
-11.897113 -41.040971 204.959213
-11.554339 -41.044659 204.977631
-11.211461 -41.048194 204.995285
-10.868505 -41.051656 205.012573
-10.525465 -41.055017 205.029358
-10.182338 -41.058255 205.045532
-9.839132 -41.061390 205.061188
-9.495846 -41.064406 205.076248
-9.152487 -41.067321 205.090805
-8.809053 -41.070114 205.104752
-8.465550 -41.072796 205.118149
-8.121979 -41.075369 205.130997
-7.778344 -41.077825 205.143265
-7.434650 -41.080181 205.155029
-7.090894 -41.082412 205.166168
-6.747084 -41.084538 205.176788
-6.403219 -41.086546 205.186813
-6.059305 -41.088443 205.196289
-5.715344 -41.090230 205.205215
-5.350714 -40.934126 204.425629
-5.007690 -40.933258 204.421295
-4.664945 -40.934704 204.428513
-4.308790 -40.809370 203.802597
-3.963949 -40.778825 203.650055
-3.622327 -40.778761 203.649734
-3.280791 -40.779754 203.654694
-2.939230 -40.780631 203.659073
-2.597648 -40.781395 203.662888
-2.256046 -40.782049 203.666153
-1.914428 -40.782593 203.668869
-1.572797 -40.783024 203.671021
-1.231156 -40.783348 203.672638
-0.889506 -40.783552 203.673660
-0.547852 -40.783650 203.674149
-0.206195 -40.783638 203.674088
0.135461 -40.783509 203.673447
0.477114 -40.783271 203.672256
0.818760 -40.782923 203.670517
1.160397 -40.782458 203.668198
1.502023 -40.781890 203.665359
1.843634 -40.781203 203.661926
2.185227 -40.780402 203.657928
2.529936 -40.830101 203.906128
2.879577 -40.938080 204.445374
3.222437 -40.936940 204.439682
3.565767 -40.941404 204.461975
3.923366 -41.094545 205.226761
4.267473 -41.093066 205.219376
4.611543 -41.091474 205.211426
4.955573 -41.089769 205.202911
5.299560 -41.087951 205.193832
5.643501 -41.086023 205.184204
5.987394 -41.083988 205.174042
6.331234 -41.081834 205.163284
6.675020 -41.079567 205.151962
7.018751 -41.077196 205.140121
7.362420 -41.074706 205.127686
7.706027 -41.072103 205.114685
8.049568 -41.069389 205.101135
8.393040 -41.066560 205.087006
8.736442 -41.063624 205.072342
9.082147 -41.071323 205.110794
9.459901 -41.218106 205.843826
9.804416 -41.214821 205.827423
10.148848 -41.211426 205.810471
10.499611 -41.233114 205.918777
10.879879 -41.365600 206.580414
11.225393 -41.361848 206.561676
11.570814 -41.357992 206.542419
11.916138 -41.354020 206.522583
12.261362 -41.349938 206.502197
12.606483 -41.345743 206.481247
12.951503 -41.341447 206.459793
13.296407 -41.337016 206.437668
13.641210 -41.332503 206.415131
13.985888 -41.327844 206.391861
14.330463 -41.323114 206.368240
14.674905 -41.318232 206.343857
15.019240 -41.313282 206.319138
15.363433 -41.308170 206.293610
15.707520 -41.303006 206.267822
16.051452 -41.297669 206.241165
16.395303 -41.292349 206.214600
16.738940 -41.286724 206.186508
17.082519 -41.281185 206.158844
17.425873 -41.275334 206.129623
17.769174 -41.269586 206.100922
18.112233 -41.263506 206.070557
18.455240 -41.257539 206.040756
18.797999 -41.251245 206.009323
19.140701 -41.245057 205.978424
19.483144 -41.238540 205.945877
19.837658 -41.257355 206.039841
20.246586 -41.386755 206.686066
20.589991 -41.380116 206.652908
20.933108 -41.373125 206.617996
21.276181 -41.366278 206.583801
21.618946 -41.359061 206.547760
21.961673 -41.352000 206.512497
22.384367 -41.493392 207.218613
22.735083 -41.499075 207.246994
23.078600 -41.491645 207.209885
23.421801 -41.483875 207.171082
23.764948 -41.476239 207.132950
24.107755 -41.468237 207.092987
24.450523 -41.460397 207.053833
24.792931 -41.452175 207.012772
25.135309 -41.444130 206.972595
25.477302 -41.435679 206.930389
25.819083 -41.427114 206.887619
26.161045 -41.419063 206.847412
26.523266 -41.442877 206.966339
26.948617 -41.563444 207.568451
27.314635 -41.590591 207.704025
27.741498 -41.708533 208.293030
28.084653 -41.699254 208.246689
28.427578 -41.689865 208.199799
28.770332 -41.680457 208.152817
29.113205 -41.671444 208.107803
29.455431 -41.661731 208.059296
29.797421 -41.651913 208.010269
30.139259 -41.642115 207.961334
30.481188 -41.632664 207.914139
30.822450 -41.622526 207.863510
31.182515 -41.637724 207.939407
31.547343 -41.658874 208.045029
31.969929 -41.754997 208.525070
32.358279 -41.804810 208.773834
32.780638 -41.897022 209.234344
33.123206 -41.886380 209.181198
33.465784 -41.875973 209.129227
33.807652 -41.864903 209.073944
34.149248 -41.853727 209.018127
34.498151 -41.851643 209.007721
34.968615 -41.995590 209.726593
35.373492 -42.058687 210.041702
35.792090 -42.136692 210.431259
36.135688 -42.125741 210.376572
36.478287 -42.113849 210.317184
36.820594 -42.101851 210.257263
37.162607 -42.089748 210.196823
37.514920 -42.089428 210.195221
37.994656 -42.230744 210.900955
38.337124 -42.218287 210.838745
38.830668 -42.370908 211.600937
39.174697 -42.359095 211.541946
39.517587 -42.346275 211.477921
39.860168 -42.333354 211.413391
40.202889 -42.320808 211.350739
40.545274 -42.308131 211.287430
40.886918 -42.294907 211.221390
41.228236 -42.281577 211.154816
41.569761 -42.268683 211.090424
41.910851 -42.255569 211.024933
42.251205 -42.241939 210.956863
42.617270 -42.254026 211.017227
43.099559 -42.380199 211.647339
43.440646 -42.366600 211.579422
43.780997 -42.352508 211.509048
43.975870 -42.199044 210.742645
44.297114 -42.168324 210.589233
44.626429 -42.145714 210.476318
44.964102 -42.131290 210.404282
45.301421 -42.116761 210.331726
45.461590 -41.939034 209.444153
45.666904 -41.805359 208.776581
45.952024 -41.746222 208.481247
46.240773 -41.691249 208.206711
46.495398 -41.606565 207.783798
46.917806 -41.672165 208.111404
47.655177 -42.014478 209.820923
47.989664 -41.999180 209.744522
48.634166 -42.253445 211.014328
49.040446 -42.298565 211.239655
49.376458 -42.282863 211.161240
49.712091 -42.267063 211.082336
50.218253 -42.395452 211.723511
50.778742 -42.567579 212.583115
51.115879 -42.551376 212.502197
51.453887 -42.536117 212.425995
51.993103 -42.686260 213.175812
52.535217 -42.836715 213.927185
52.873526 -42.820075 213.844086
53.211328 -42.803252 213.760071
53.719486 -42.922771 214.356949
54.099627 -42.939093 214.438461
54.650688 -43.089963 215.191910
-59.714474 -42.148625 212.394165
-59.611798 -42.328705 213.301620
-59.272990 -42.342276 213.370010
-58.716892 -42.199847 212.652283
-58.372863 -42.209022 212.698517
-58.037749 -42.224795 212.778000
-57.494529 -42.088421 212.090790
-56.962950 -41.958924 211.438232
-56.608674 -41.959224 211.439743
-56.277191 -41.976529 211.526947
-55.942464 -41.991618 211.602982
-55.610235 -42.008787 211.689499
-55.277596 -42.025865 211.775558
-54.944027 -42.042453 211.859146
-54.610544 -42.059322 211.944153
-54.276650 -42.076094 212.028671
-53.732047 -41.928665 211.285751
-53.209184 -41.796355 210.619019
-52.855728 -41.796237 210.618423
-52.523666 -41.813149 210.703644
-52.189343 -41.828476 210.780884
-51.855736 -41.844592 210.862091
-51.521733 -41.860607 210.942795
-51.186952 -41.876207 211.021408
-50.668796 -41.740960 210.339874
-50.319141 -41.743601 210.353180
-49.984936 -41.759186 210.431717
-49.583110 -41.718099 210.224670
-49.121851 -41.626058 209.760864
-48.787843 -41.641302 209.837677
-48.453469 -41.656451 209.914017
-48.117495 -41.670437 209.984497
-47.782403 -41.685399 210.059891
-47.446941 -41.700257 210.134766
-47.032488 -41.645395 209.858307
-46.591437 -41.565976 209.458099
-46.256233 -41.580499 209.531281
-45.920674 -41.594921 209.603958
-45.584761 -41.609244 209.676132
-45.071010 -41.460198 208.925064
-44.735733 -41.474278 208.996017
-44.400107 -41.488256 209.066452
-44.063596 -41.501621 209.133804
-43.726818 -41.514948 209.200958
-43.390193 -41.528637 209.269943
-43.053228 -41.542221 209.338394
-42.715373 -41.555163 209.403610
-42.219885 -41.413696 208.690735
-41.875516 -41.419337 208.719162
-41.538569 -41.432476 208.785370
-41.200731 -41.444943 208.848190
-40.710069 -41.302573 208.130768
-40.366934 -41.308711 208.161697
-40.030044 -41.321402 208.225647
-39.692267 -41.333393 208.286072
-39.354492 -41.345599 208.347580
-39.016688 -41.357992 208.410034
-38.678579 -41.370283 208.471970
-38.339363 -41.381605 208.529022
-38.000665 -41.393699 208.589966
-37.661661 -41.405681 208.650345
-37.180770 -41.260432 207.918411
-36.837857 -41.267000 207.951508
-36.399695 -41.165973 207.442413
-36.022682 -41.132819 207.275345
-35.681713 -41.140577 207.314438
-35.342948 -41.151054 207.367233
-35.004604 -41.162233 207.423569
-34.665981 -41.173307 207.479370
-34.327085 -41.184277 207.534653
-33.987284 -41.194376 207.585541
-33.647859 -41.205143 207.639801
-33.308167 -41.215805 207.693527
-32.967657 -41.225670 207.743240
-32.627397 -41.236063 207.795609
-32.286931 -41.246415 207.847778
-31.841090 -41.120909 207.215332
-31.481478 -41.105221 207.136276
-31.036412 -40.976360 206.486923
-30.681467 -40.964917 206.429260
-30.342274 -40.974486 206.477478
-30.002468 -40.983437 206.522583
-29.662933 -40.992972 206.570633
-29.323156 -41.002395 206.618118
-28.983146 -41.011712 206.665070
-28.642447 -41.020270 206.708191
-28.301988 -41.029384 206.754120
-27.961297 -41.038383 206.799469
-27.620337 -41.047210 206.843948
-27.278826 -41.055431 206.885376
-26.937477 -41.064113 206.929123
-26.595911 -41.072685 206.972321
-26.254100 -41.081100 207.014725
-25.911915 -41.089148 207.055283
-25.569568 -41.097155 207.095627
-25.227132 -41.105236 207.136353
-24.884387 -41.113034 207.175644
-24.541548 -41.120894 207.215256
-24.198420 -41.128489 207.253525
-23.855189 -41.136128 207.292023
-23.511682 -41.143511 207.329224
-23.088096 -41.008878 206.650787
-22.742578 -41.010919 206.661072
-22.392574 -41.004809 206.630280
-22.049693 -41.011755 206.665283
-21.706604 -41.018529 206.699417
-21.363466 -41.025429 206.734192
-21.020035 -41.031985 206.767227
-20.676560 -41.038674 206.800934
-20.332799 -41.045015 206.832886
-19.916613 -40.902836 206.116425
-19.568325 -40.897537 206.089722
-19.225541 -40.903760 206.121078
-18.882496 -40.909646 206.150742
-18.539405 -40.915648 206.180984
-18.196068 -40.921326 206.209595
-17.852677 -40.927100 206.238693
-17.509056 -40.932566 206.266235
-17.165379 -40.938116 206.294205
-16.821483 -40.943364 206.320648
-16.477494 -40.948599 206.347031
-16.133374 -40.953729 206.372879
-15.789121 -40.958737 206.398117
-15.415923 -40.887200 206.037628
-15.071410 -40.890207 206.052780
-14.698101 -40.813394 205.665710
-14.354701 -40.817936 205.688599
-14.011196 -40.822397 205.711075
-13.620390 -40.685787 205.022675
-13.271898 -40.671773 204.952057
-12.929401 -40.675873 204.972717
-12.586801 -40.679864 204.992828
-12.244101 -40.683746 205.012390
-11.901302 -40.687516 205.031387
-11.558408 -40.691174 205.049820
-11.215409 -40.694677 205.067474
-10.872334 -40.698117 205.084808
-10.529171 -40.701442 205.101562
-10.185927 -40.704664 205.117798
-9.842599 -40.707767 205.133438
-9.499194 -40.710765 205.148544
-9.155713 -40.713654 205.163101
-8.812159 -40.716425 205.177063
-8.468535 -40.719089 205.190491
-8.124844 -40.721639 205.203339
-7.781089 -40.724082 205.215652
-7.437271 -40.726408 205.227371
-7.093396 -40.728631 205.238571
-6.749464 -40.730732 205.249161
-6.405479 -40.732727 205.259216
-6.040519 -40.593995 204.560120
-5.695351 -40.579560 204.487381
-5.352285 -40.579221 204.485672
-5.009458 -40.580766 204.493454
-4.648549 -40.425291 203.709991
-4.306833 -40.425300 203.710037
-3.965235 -40.426508 203.716125
-3.623605 -40.427598 203.721619
-3.281949 -40.428583 203.726578
-2.940268 -40.429455 203.730972
-2.598565 -40.430215 203.734802
-2.256843 -40.430866 203.738083
-1.915105 -40.431408 203.740814
-1.573353 -40.431832 203.742950
-1.231591 -40.432156 203.744583
-0.889820 -40.432359 203.745605
-0.548045 -40.432455 203.746094
-0.206268 -40.432443 203.746033
0.135509 -40.432316 203.745392
0.477282 -40.432077 203.744186
0.819049 -40.431726 203.742416
1.160807 -40.431274 203.740143
1.502553 -40.430702 203.737259
1.844285 -40.430024 203.733841
2.185999 -40.429231 203.729843
2.527909 -40.431786 203.742722
2.872670 -40.473909 203.954987
3.223575 -40.584420 204.511871
3.566528 -40.583182 204.505630
3.909450 -40.581834 204.498840
4.254243 -40.598561 204.583130
4.599963 -40.620981 204.696106
4.957322 -40.735925 205.275330
5.301430 -40.734123 205.266251
5.645492 -40.732210 205.256607
5.989506 -40.730190 205.246429
6.333468 -40.728055 205.235672
6.677375 -40.725805 205.224335
7.021226 -40.723450 205.212463
7.365016 -40.720976 205.199997
7.708744 -40.718399 205.187012
8.052406 -40.715707 205.173447
8.395999 -40.712903 205.159317
8.739522 -40.709990 205.144638
9.082970 -40.706962 205.129379
9.442598 -40.774024 205.467316
9.789356 -40.782745 205.511261
10.152423 -40.856508 205.882965
10.496890 -40.853025 205.865417
10.859711 -40.918921 206.197479
11.210085 -40.935297 206.279999
11.574887 -41.001802 206.615128
11.920331 -40.997859 206.595261
12.265676 -40.993811 206.574860
12.610918 -40.989647 206.553879
12.956059 -40.985390 206.532425
13.301083 -40.980993 206.510269
13.646005 -40.976512 206.487686
13.990803 -40.971891 206.464401
14.335499 -40.967200 206.440765
14.680059 -40.962352 206.416336
15.024515 -40.957444 206.391602
15.368827 -40.952372 206.366043
15.713032 -40.947246 206.340210
16.057084 -40.941950 206.313522
16.401054 -40.936675 206.286942
16.744811 -40.931094 206.258820
17.088511 -40.925604 206.231155
17.431983 -40.919796 206.201889
17.775400 -40.914089 206.173126
18.118579 -40.908063 206.142761
18.461706 -40.902146 206.112946
18.804579 -40.895893 206.081436
19.147401 -40.889758 206.050522
19.489960 -40.883290 206.017929
19.832468 -40.876941 205.985931
20.182193 -40.885431 206.028717
20.585859 -41.001069 206.611435
20.940426 -41.016706 206.690231
21.283613 -41.009905 206.655960
21.626495 -41.002746 206.619888
21.969340 -40.995743 206.584595
22.311994 -40.988606 206.548630
22.663651 -40.997974 206.595840
23.080923 -41.123968 207.230743
23.429964 -41.126457 207.243286
23.773229 -41.118884 207.205124
24.116153 -41.110947 207.165131
24.459037 -41.103168 207.125931
24.801562 -41.095014 207.084839
25.144057 -41.087035 207.044632
25.486162 -41.078644 207.002350
25.828062 -41.070154 206.959564
26.170135 -41.062160 206.919281
26.511615 -41.053457 206.875427
26.864918 -41.063050 206.923767
27.300380 -41.196377 207.595627
27.644052 -41.189579 207.561371
28.007412 -41.211920 207.673950
28.437435 -41.330598 208.271988
28.780298 -41.321256 208.224915
29.123289 -41.312321 208.179886
29.465630 -41.302685 208.131332
29.807729 -41.292941 208.082230
30.149681 -41.283221 208.033249
30.491724 -41.273846 207.986008
30.833098 -41.263787 207.935318
31.174225 -41.253628 207.884125
31.515218 -41.243518 207.833176
31.980959 -41.395098 208.597015
32.322658 -41.384579 208.544006
32.708804 -41.430584 208.775833
33.134613 -41.525322 209.253235
33.477307 -41.515002 209.201233
33.819288 -41.504023 209.145905
34.160994 -41.492934 209.090027
34.503090 -41.482539 209.037643
34.901009 -41.538793 209.321121
35.322850 -41.622116 209.740997
35.725970 -41.681953 210.042526
36.148082 -41.762562 210.448730
36.490795 -41.750768 210.389297
36.833211 -41.738865 210.329315
37.175333 -41.726856 210.268799
37.517934 -41.715606 210.212112
38.007653 -41.866621 210.973099
38.350228 -41.854260 210.910812
38.763005 -41.918043 211.232224
39.188074 -41.993840 211.614182
39.531071 -41.981120 211.550079
39.873764 -41.968305 211.485504
40.216592 -41.955857 211.422775
40.559089 -41.943284 211.359421
40.900839 -41.930164 211.293304
41.242266 -41.916941 211.226669
41.583899 -41.904150 211.162216
41.925095 -41.891139 211.096649
42.265554 -41.877615 211.028503
42.605679 -41.863989 210.959839
42.957948 -41.862421 210.951935
43.305362 -41.856186 210.920517
43.644642 -41.842254 210.850311
43.963875 -41.809482 210.685165
44.303039 -41.796034 210.617401
44.641512 -41.782154 210.547455
44.979288 -41.767843 210.475342
45.316709 -41.753430 210.402710
45.350050 -41.461233 208.930283
45.682304 -41.444703 208.846985
45.834775 -41.266561 207.949295
46.135976 -41.224005 207.734848
46.453336 -41.196417 207.595825
46.931882 -41.311122 208.173843
47.671185 -41.651963 209.891403
48.005772 -41.636787 209.814926
48.495568 -41.755468 210.412979
48.865632 -41.770087 210.486649
49.392992 -41.917988 211.231949
49.728733 -41.902321 211.153000
50.084857 -41.903929 211.161102
50.771569 -42.180162 212.553085
51.132946 -42.184143 212.573151
51.471069 -42.169018 212.496933
52.010445 -42.317849 213.246918
52.539683 -42.456455 213.945374
52.891126 -42.450480 213.915268
53.229029 -42.433793 213.831177
53.566535 -42.417014 213.746628
54.117601 -42.568443 214.509705
54.668824 -42.717995 215.263321
-59.516975 -41.629365 211.691696
-59.418066 -41.809638 212.608414
-59.083036 -41.824938 212.686218
-58.735068 -41.831210 212.718109
-58.390954 -41.840320 212.764435
-57.844223 -41.703463 212.068497
-57.496138 -41.709014 212.096725
-56.957429 -41.575491 211.417740
-56.626277 -41.592748 211.505493
-56.294717 -41.609920 211.592819
-55.959887 -41.624879 211.668884
-55.627575 -41.641913 211.755508
-55.294841 -41.658849 211.841629
-54.961186 -41.675305 211.925308
-54.627603 -41.692030 212.010361
-54.081949 -41.546060 211.268082
-53.551489 -41.409915 210.575760
-53.207145 -41.416834 210.610947
-52.872298 -41.431288 210.684448
-52.540140 -41.448059 210.769730
-52.205728 -41.463266 210.847061
-51.872025 -41.479248 210.928329
-51.537937 -41.495139 211.009140
-51.017989 -41.360572 210.324844
-50.668918 -41.363627 210.340378
-50.334997 -41.379179 210.419464
-49.819978 -41.245023 209.737259
-49.471098 -41.247480 209.749756
-49.137366 -41.262693 209.827118
-48.803265 -41.277814 209.904007
-48.468790 -41.292835 209.980392
-48.132723 -41.306710 210.050949
-47.797536 -41.321551 210.126419
-47.284828 -41.182003 209.416794
-46.942341 -41.189727 209.456070
-46.606225 -41.203200 209.524582
-46.270923 -41.217603 209.597824
-45.769239 -41.082879 208.912735
-45.421488 -41.085316 208.925125
-45.085352 -41.098378 208.991547
-44.749980 -41.112346 209.062576
-44.414256 -41.126209 209.133072
-44.077646 -41.139466 209.200485
-43.740768 -41.152683 209.267700
-43.404044 -41.166261 209.336746
-43.066989 -41.179743 209.405304
-42.632715 -41.099725 208.998398
-42.225636 -41.044813 208.719162
-41.888919 -41.057950 208.785965
-41.551875 -41.070985 208.852249
-41.113005 -40.982738 208.403503
-40.716560 -40.935631 208.163956
-40.379886 -40.948321 208.228485
-40.042901 -40.960915 208.292526
-39.705021 -40.972806 208.352997
-39.367142 -40.984911 208.414551
-39.029235 -40.997202 208.477051
-38.691029 -41.009399 208.539078
-38.351716 -41.020634 208.596207
-37.903144 -40.914137 208.054657
-37.526930 -40.884494 207.903915
-37.188855 -40.896236 207.963623
-36.746099 -40.791993 207.433533
-36.368754 -40.759064 207.266083
-36.031144 -40.770460 207.324036
-35.693242 -40.781746 207.381424
-35.354381 -40.792146 207.434311
-35.015931 -40.803233 207.490692
-34.677206 -40.814219 207.546555
-34.338205 -40.825099 207.601883
-33.998302 -40.835118 207.652832
-33.658771 -40.845798 207.707138
-33.210208 -40.723002 207.082703
-32.859165 -40.718456 207.059586
-32.637999 -40.876473 207.863129
-32.180683 -40.738950 207.163803
-31.832424 -40.737993 207.158936
-31.373160 -40.593385 206.423584
-31.030249 -40.597778 206.445923
-30.691325 -40.607546 206.495590
-30.352158 -40.617211 206.544739
-30.012246 -40.626090 206.589890
-29.672602 -40.635545 206.637970
-29.332722 -40.644895 206.685516
-28.992607 -40.654140 206.732529
-28.651803 -40.662632 206.775711
-28.311229 -40.671661 206.821625
-27.970432 -40.680590 206.867035
-27.629365 -40.689346 206.911560
-27.287747 -40.697502 206.953033
-26.946291 -40.706114 206.996826
-26.604615 -40.714615 207.040054
-26.262696 -40.722963 207.082504
-25.920405 -40.730950 207.123123
-25.577946 -40.738887 207.163483
-25.235404 -40.746908 207.204269
-24.874272 -40.724718 207.091431
-24.459363 -40.612608 206.521332
-24.111990 -40.611023 206.513275
-23.771618 -40.621358 206.565826
-23.427714 -40.625871 206.588776
-23.085329 -40.633195 206.626022
-22.742692 -40.640292 206.662109
-22.399939 -40.647397 206.698242
-22.056946 -40.654284 206.733261
-21.713743 -40.660996 206.767395
-21.370497 -40.667847 206.802231
-21.026956 -40.674352 206.835312
-20.608609 -40.533942 206.121307
-20.260199 -40.528646 206.094376
-19.917622 -40.535035 206.126862
-19.574776 -40.541093 206.157669
-19.231878 -40.547259 206.189026
-18.888724 -40.553102 206.218735
-18.545521 -40.559055 206.249008
-18.202073 -40.564687 206.277649
-17.858570 -40.570415 206.306778
-17.514836 -40.575832 206.334320
-17.171048 -40.581341 206.362335
-16.827040 -40.586547 206.388809
-16.482939 -40.591741 206.415222
-16.108628 -40.521166 206.056335
-15.791971 -40.595702 206.435364
-15.389621 -40.448358 205.686096
-15.046350 -40.453090 205.710159
-14.672904 -40.375016 205.313141
-14.307550 -40.315987 205.012970
-13.962822 -40.313604 205.000854
-13.618791 -40.313163 204.998611
-13.276294 -40.317358 205.019943
-12.933685 -40.321427 205.040634
-12.590971 -40.325382 205.060745
-12.248157 -40.329229 205.080307
-11.905245 -40.332968 205.099319
-11.562238 -40.336595 205.117767
-11.219129 -40.340079 205.135483
-10.875941 -40.343494 205.152847
-10.532665 -40.346792 205.169617
-10.189305 -40.349978 205.185822
-9.845864 -40.353060 205.201492
-9.502345 -40.356031 205.216599
-9.158750 -40.358893 205.231155
-8.815084 -40.361648 205.245163
-8.471346 -40.364288 205.258591
-8.127540 -40.366815 205.271439
-7.783671 -40.369237 205.283752
-7.439741 -40.371553 205.295532
-7.074192 -40.251080 204.682907
-6.727021 -40.228224 204.566681
-6.382626 -40.220401 204.526901
-6.039818 -40.222261 204.536362
-5.696963 -40.224014 204.545273
-5.334712 -40.080264 203.814285
-4.991587 -40.070362 203.763931
-4.649943 -40.071773 203.771103
-4.308265 -40.073081 203.777756
-3.966553 -40.074275 203.783829
-3.624810 -40.075358 203.789337
-3.283040 -40.076334 203.794296
-2.941245 -40.077198 203.798691
-2.599429 -40.077951 203.802521
-2.257593 -40.078599 203.805817
-1.915741 -40.079133 203.808533
-1.573876 -40.079556 203.810684
-1.232000 -40.079874 203.812302
-0.890116 -40.080075 203.813324
-0.548227 -40.080168 203.813797
-0.206336 -40.080162 203.813766
0.135554 -40.080036 203.813126
0.477441 -40.079799 203.811920
0.819321 -40.079454 203.810165
1.161193 -40.078998 203.807846
1.503053 -40.078434 203.804977
1.844898 -40.077762 203.801559
2.186725 -40.076976 203.797562
2.528533 -40.076085 203.793030
2.870317 -40.075082 203.787933
3.215505 -40.116758 203.999863
3.567714 -40.229583 204.573593
3.910748 -40.228239 204.566757
4.253749 -40.226789 204.559387
4.596712 -40.225226 204.551437
4.940027 -40.226750 204.559189
5.297620 -40.336784 205.118729
5.633142 -40.275601 204.807602
5.991495 -40.375301 205.314590
6.335571 -40.373182 205.303818
6.679592 -40.370950 205.292465
7.023556 -40.368609 205.280563
7.367460 -40.366161 205.268112
7.711302 -40.363604 205.255112
8.055078 -40.360934 205.241531
8.398785 -40.358152 205.227386
8.742421 -40.355262 205.212692
9.085982 -40.352259 205.197418
9.429468 -40.349150 205.181610
9.772872 -40.345927 205.165222
10.117539 -40.347956 205.175537
10.462417 -40.350668 205.189331
10.844872 -40.493515 205.915726
11.189274 -40.489842 205.897049
11.556856 -40.567757 206.293259
11.924281 -40.640607 206.663712
12.269739 -40.636589 206.643280
12.615093 -40.632457 206.622269
12.960348 -40.628235 206.600800
13.305486 -40.623875 206.578629
13.650521 -40.619428 206.556015
13.995433 -40.614846 206.532715
14.340241 -40.610192 206.509048
14.684916 -40.605388 206.484619
15.029482 -40.600512 206.459824
15.373906 -40.595480 206.434235
15.718226 -40.590403 206.408417
16.062390 -40.585149 206.381699
16.406471 -40.579913 206.355072
16.750339 -40.574376 206.326920
17.094152 -40.568933 206.299240
17.437736 -40.563172 206.269943
17.781266 -40.557513 206.241165
18.124555 -40.551532 206.210754
18.467791 -40.545657 206.180878
18.810777 -40.539461 206.149368
19.153712 -40.533378 206.118439
19.496381 -40.526960 206.085800
19.839001 -40.520665 206.053787
20.181344 -40.514030 206.020050
20.523640 -40.507525 205.986969
20.870722 -40.510525 206.002228
21.208419 -40.495507 205.925858
21.555413 -40.498439 205.940765
21.976560 -40.638398 206.652481
22.319324 -40.631320 206.616486
22.661790 -40.623923 206.578873
23.004194 -40.616641 206.541840
23.352545 -40.619917 206.558502
23.781028 -40.760444 207.273102
24.124061 -40.752570 207.233063
24.467057 -40.744859 207.193848
24.809685 -40.736760 207.152664
25.152290 -40.728847 207.112427
25.494507 -40.720529 207.070129
25.836513 -40.712103 207.027283
26.178698 -40.704179 206.986984
26.520284 -40.695543 206.943069
26.861653 -40.686802 206.898621
27.202835 -40.678004 206.853882
27.561074 -40.694613 206.938339
27.993995 -40.819707 207.574463
28.355781 -40.839274 207.673965
28.789685 -40.960975 208.292831
29.132781 -40.952108 208.247742
29.475232 -40.942554 208.199158
29.817441 -40.932892 208.150024
30.159496 -40.923244 208.100967
30.501648 -40.913948 208.053696
30.843128 -40.903971 208.002960
31.184355 -40.893886 207.951675
31.525457 -40.883861 207.900696
31.866621 -40.874136 207.851242
32.333151 -41.023682 208.611710
32.674690 -41.013138 208.558090
33.058876 -41.055780 208.774933
33.488156 -41.152945 209.269028
33.830244 -41.142055 209.213654
34.172056 -41.131058 209.157730
34.514255 -41.120745 209.105286
34.855522 -41.109540 209.048309
35.251655 -41.162625 209.318253
35.676311 -41.247639 209.750565
36.078475 -41.305243 210.043488
36.502569 -41.386597 210.457184
36.845092 -41.374792 210.397156
37.187319 -41.362882 210.336594
37.530023 -41.351723 210.279846
37.936972 -41.410899 210.580765
38.362572 -41.489153 210.978699
38.704939 -41.476784 210.915802
39.126722 -41.548971 211.282883
39.543774 -41.614883 211.618057
39.886567 -41.602170 211.553406
40.229496 -41.589822 211.490616
40.572093 -41.577348 211.427185
40.913945 -41.564334 211.361008
41.255476 -41.551221 211.294327
41.597205 -41.538529 211.229782
41.938505 -41.525626 211.164169
42.279065 -41.512213 211.095963
42.619294 -41.498701 211.027252
42.959806 -41.485684 210.961060
43.299761 -41.472346 210.893234
43.638992 -41.458537 210.823013
43.977889 -41.444635 210.752319
44.317142 -41.431288 210.684448
44.655718 -41.417524 210.614456
44.993593 -41.403331 210.542282
45.206856 -41.275584 209.892670
45.314012 -41.053680 208.764252
45.648226 -41.039313 208.691193
45.849311 -40.906387 208.015244
46.131777 -40.847529 207.715942
46.468048 -40.836838 207.661575
46.942079 -40.946469 208.219070
47.647334 -41.254685 209.786392
48.020938 -41.273331 209.881210
48.510880 -41.390968 210.479416
48.881052 -41.405453 210.553070
49.227750 -41.399988 210.525284
49.744397 -41.536509 211.219513
50.081191 -41.521983 211.145645
50.603974 -41.660781 211.851456
51.149023 -41.815846 212.639984
51.487228 -41.800834 212.563644
51.837474 -41.795736 212.537720
52.554477 -42.084399 214.005615
52.907707 -42.079820 213.982330
53.245704 -42.063268 213.898163
53.583292 -42.046618 213.813492
54.130247 -42.193386 214.559830
54.683910 -42.343409 215.322723
-59.751612 -41.412126 212.526260
-59.649640 -41.589595 213.437027
-59.085893 -41.445299 212.696503
-58.754213 -41.463020 212.787445
-58.409995 -41.472056 212.833817
-57.863102 -41.336415 212.137711
-57.313345 -41.197037 211.422424
-56.976055 -41.209596 211.486877
-56.644804 -41.226707 211.574692
-56.313148 -41.243738 211.662094
-55.978233 -41.258584 211.738281
-55.645822 -41.275475 211.824966
-55.312995 -41.292274 211.911179
-54.944846 -41.282750 211.862305
-54.437991 -41.168208 211.274475
-53.894165 -41.024022 210.534515
-53.556953 -41.036245 210.597244
-53.224673 -41.052435 210.680328
-52.889736 -41.066778 210.753937
-52.557489 -41.083416 210.839325
-52.222971 -41.098493 210.916702
-51.889174 -41.114347 210.998062
-51.499073 -41.085500 210.850021
-51.020320 -40.985039 210.334457
-50.627673 -40.952830 210.169159
-50.155387 -40.855297 209.668625
-49.822294 -40.870571 209.747009
-49.487523 -40.884676 209.819397
-49.153693 -40.899766 209.896835
-48.819496 -40.914766 209.973816
-48.484925 -40.929668 210.050293
-48.148751 -40.943425 210.120895
-47.630533 -40.801443 209.392242
-47.292714 -40.813032 209.451721
-46.958010 -40.827503 209.525986
-46.621787 -40.840862 209.594543
-46.204610 -40.782970 209.297440
-45.771488 -40.710008 208.923004
-45.436688 -40.724045 208.995041
-45.100451 -40.737003 209.061539
-44.764975 -40.750855 209.132629
-44.429152 -40.764610 209.203217
-44.092441 -40.777760 209.270706
-43.755458 -40.790870 209.337982
-43.418626 -40.804333 209.407074
-42.986457 -40.727688 209.013733
-42.576757 -40.671246 208.724075
-42.239854 -40.683983 208.789444
-41.807575 -40.604303 208.380524
-41.469235 -40.615283 208.436874
-41.067100 -40.563438 208.170807
-40.730301 -40.575792 208.234207
-40.393521 -40.588378 208.298798
-40.056424 -40.600862 208.362869
-39.718440 -40.612660 208.423416
-39.380461 -40.624672 208.485062
-39.042449 -40.636866 208.547638
-38.599514 -40.539084 208.045822
-38.216407 -40.502926 207.860260
-37.877547 -40.513427 207.914154
-37.539660 -40.525175 207.974442
-37.093904 -40.419603 207.432648
-36.718547 -40.389469 207.278000
-36.381111 -40.400868 207.336502
-36.043396 -40.412176 207.394531
-35.705389 -40.423373 207.451996
-35.366414 -40.433684 207.504913
-35.027856 -40.444682 207.561356
-34.689025 -40.455582 207.617294
-34.349916 -40.466375 207.672684
-34.009899 -40.476309 207.723663
-33.556996 -40.350709 207.079086
-33.200405 -40.339503 207.021576
-32.861015 -40.349181 207.071243
-32.521866 -40.359364 207.123505
-32.068177 -40.226090 206.439545
-31.728266 -40.234186 206.481094
-31.379809 -40.231505 206.467331
-31.040875 -40.241108 206.516617
-30.701841 -40.250798 206.566345
-30.362560 -40.260381 206.615524
-30.022540 -40.269194 206.660751
-29.682786 -40.278574 206.708893
-29.342791 -40.287845 206.756470
-29.002561 -40.297012 206.803513
-28.661645 -40.305435 206.846741
-28.320962 -40.314396 206.892731
-27.980051 -40.323251 206.938171
-27.638866 -40.331930 206.982712
-27.297138 -40.340026 207.024261
-26.955569 -40.348568 207.068100
-26.613780 -40.357000 207.111374
-26.271745 -40.365278 207.153854
-25.913120 -40.347947 207.064911
-25.490131 -40.228564 206.452240
-25.145691 -40.231567 206.467651
-24.804062 -40.239214 206.506897
-24.462333 -40.246912 206.546402
-24.120321 -40.254360 206.584625
-23.778200 -40.261841 206.623016
-23.435810 -40.269081 206.660172
-23.093313 -40.276350 206.697479
-22.750561 -40.283391 206.733612
-22.407688 -40.290432 206.769745
-22.064580 -40.297264 206.804810
-21.639219 -40.151696 206.057755
-21.296303 -40.156860 206.084259
-20.952234 -40.159985 206.100296
-20.609872 -40.166541 206.133942
-20.267224 -40.172756 206.165833
-19.924528 -40.179089 206.198334
-19.581567 -40.185101 206.229187
-19.238550 -40.191214 206.260559
-18.895281 -40.197012 206.290314
-18.551959 -40.202913 206.320602
-18.208393 -40.208500 206.349274
-17.864772 -40.214179 206.378418
-17.520922 -40.219558 206.406021
-17.177016 -40.225023 206.434067
-16.832891 -40.230187 206.460571
-16.457730 -40.159837 206.099533
-16.082331 -40.085874 205.719955
-15.738240 -40.088413 205.732986
-15.394977 -40.093223 205.757675
-15.019127 -40.011444 205.337982
-14.650740 -39.946171 205.003006
-14.308449 -39.950622 205.025848
-13.966054 -39.954996 205.048294
-13.623536 -39.959233 205.070038
-13.280919 -39.963387 205.091354
-12.938192 -39.967424 205.112076
-12.595360 -39.971349 205.132217
-12.252427 -39.975167 205.151810
-11.909398 -39.978880 205.170868
-11.566272 -39.982478 205.189331
-11.223042 -39.985927 205.207031
-10.879733 -39.989308 205.224380
-10.536340 -39.992584 205.241196
-10.192862 -39.995754 205.257462
-9.849301 -39.998807 205.273132
-9.505663 -40.001754 205.288254
-9.161949 -40.004593 205.302826
-8.818161 -40.007320 205.316818
-8.474305 -40.009942 205.330276
-8.130380 -40.012451 205.343155
-7.762404 -39.891585 204.722870
-7.413326 -39.861136 204.566605
-7.070557 -39.863309 204.577759
-6.727734 -39.865375 204.588364
-6.384856 -39.867326 204.598373
-6.021245 -39.732684 203.907394
-5.676737 -39.715472 203.819061
-5.335054 -39.717089 203.827362
-4.993331 -39.718606 203.835144
-4.651570 -39.720015 203.842377
-4.309771 -39.721308 203.849014
-3.967940 -39.722495 203.855103
-3.626078 -39.723568 203.860611
-3.284188 -39.724529 203.865540
-2.942274 -39.725388 203.869949
-2.600338 -39.726134 203.873779
-2.258383 -39.726782 203.877106
-1.909167 -39.577125 203.109070
-1.568288 -39.572847 203.087112
-1.227626 -39.573153 203.088684
-0.887285 -39.588049 203.165131
-0.548419 -39.728343 203.885117
-0.205700 -39.591882 203.184799
0.135549 -39.712734 203.805008
0.477608 -39.727972 203.883209
0.819608 -39.727630 203.881454
1.161599 -39.727178 203.879135
1.503578 -39.726616 203.876251
1.845543 -39.725947 203.872818
2.187490 -39.725174 203.868851
2.529417 -39.724285 203.864288
2.871320 -39.723289 203.859177
3.213198 -39.722186 203.853516
3.555047 -39.720975 203.847305
3.897341 -39.724505 203.865417
4.255236 -39.873668 204.630920
4.598319 -39.872116 204.622955
4.941362 -39.870463 204.614471
5.284362 -39.868694 204.605392
5.627316 -39.866818 204.595764
5.970223 -39.864843 204.585632
6.321702 -39.917215 204.854401
6.681926 -40.016555 205.364212
7.026010 -40.014232 205.352295
7.370034 -40.011803 205.339828
7.713996 -40.009264 205.326797
8.057890 -40.006609 205.313171
8.401717 -40.003856 205.299042
8.745473 -40.000990 205.284332
9.089154 -39.998013 205.269058
9.432759 -39.994930 205.253235
9.776283 -39.991731 205.236816
10.119725 -39.988427 205.219864
10.463082 -39.985017 205.202362
10.807008 -39.983929 205.196777
11.193175 -40.134368 205.968826
11.537603 -40.130618 205.949585
11.882700 -40.129349 205.943069
12.274015 -40.279823 206.715302
12.619489 -40.275723 206.694260
12.964863 -40.271534 206.672760
13.310119 -40.267208 206.650558
13.655275 -40.262804 206.627960
14.000306 -40.258258 206.604630
14.345232 -40.253638 206.580917
14.690025 -40.248871 206.556458
15.034710 -40.244037 206.531647
15.379254 -40.239051 206.506058
15.723690 -40.234005 206.480164
16.067973 -40.228796 206.453430
16.412172 -40.223602 206.426773
16.756158 -40.218110 206.398590
17.100087 -40.212707 206.370865
17.443791 -40.206999 206.341568
17.787438 -40.201385 206.312759
18.130844 -40.195451 206.282303
18.474198 -40.189626 206.252411
18.817303 -40.183483 206.220886
19.160354 -40.177447 206.189911
19.503140 -40.171082 206.157242
19.845878 -40.164841 206.125214
20.188337 -40.158258 206.091431
20.530748 -40.151803 206.058304
20.872868 -40.145003 206.023407
21.214945 -40.138343 205.989227
21.556721 -40.131335 205.953262
21.974784 -40.264329 206.635788
22.250881 -40.137109 205.982895
22.669622 -40.267151 206.650269
23.012141 -40.259926 206.613190
23.354343 -40.252368 206.574402
23.696495 -40.244947 206.536316
24.041143 -40.241917 206.520767
24.475499 -40.387001 207.265335
24.818242 -40.378967 207.224106
25.160959 -40.371115 207.183807
25.503292 -40.362867 207.141479
25.845410 -40.354506 207.098572
26.187712 -40.346651 207.058258
26.529412 -40.338085 207.014297
26.870895 -40.329414 206.969803
27.212188 -40.320685 206.925003
27.553622 -40.312381 206.882385
27.894791 -40.303901 206.838867
28.250859 -40.316891 206.905533
28.687285 -40.442854 207.551971
29.029160 -40.434097 207.507034
29.373976 -40.429596 207.483932
29.733665 -40.445432 207.565201
30.169827 -40.563720 208.172256
30.512090 -40.554497 208.124924
30.853681 -40.544599 208.074127
31.195025 -40.534603 208.022827
31.536241 -40.524663 207.971817
31.877511 -40.515009 207.922272
32.219090 -40.505953 207.875793
32.685844 -40.652776 208.629288
33.028526 -40.643808 208.583267
33.499576 -40.791339 209.340393
33.841774 -40.780537 209.284958
34.183693 -40.769626 209.228958
34.526006 -40.759400 209.176483
34.867388 -40.748292 209.119476
35.210007 -40.738837 209.070953
35.602932 -40.787201 209.319153
36.031020 -40.874508 209.767212
36.514963 -41.022877 210.528641
36.857595 -41.011168 210.468552
37.199931 -40.999356 210.407928
37.542747 -40.988289 210.351135
37.884495 -40.976274 210.289474
38.228065 -40.966433 210.238968
38.718038 -41.112227 210.987183
39.063330 -41.103144 210.940567
39.557138 -41.249093 211.689575
39.900042 -41.236486 211.624878
40.243077 -41.224236 211.562012
40.585785 -41.211867 211.498535
40.927744 -41.198960 211.432297
41.269372 -41.185943 211.365494
41.611220 -41.173366 211.300949
41.952618 -41.160561 211.235229
42.293285 -41.147258 211.166962
42.633618 -41.133855 211.098175
42.974233 -41.120942 211.031906
43.314297 -41.107717 210.964035
43.653631 -41.094019 210.893738
43.992628 -41.080226 210.822952
44.331993 -41.066995 210.755051
44.670671 -41.053341 210.684982
45.008648 -41.039263 210.612732
45.221971 -40.912628 209.962845
45.329155 -40.692668 208.834015
45.663463 -40.678411 208.760849
45.864610 -40.546651 208.084656
46.150392 -40.491137 207.799759
46.483529 -40.477692 207.730759
46.917207 -40.551346 208.108749
47.625612 -40.859609 209.690750
48.036907 -40.910321 209.951004
48.372589 -40.896367 209.879395
48.712610 -40.886258 209.827515
49.202635 -41.001294 210.417877
49.760892 -41.171145 211.289551
50.097781 -41.156734 211.215591
50.606289 -41.282524 211.861145
50.972018 -41.290900 211.904129
51.504252 -41.433106 212.633926
51.841054 -41.417220 212.552399
52.381541 -41.563169 213.301407
52.925149 -41.709597 214.052872
53.263245 -41.693181 213.968628
53.600939 -41.676673 213.883911
53.941221 -41.662384 213.810577
54.699976 -41.969363 215.385986
-59.771595 -41.044492 212.597336
-59.668873 -41.219891 213.505844
-59.104955 -41.076885 212.765121
-58.773088 -41.094393 212.855804
-58.213026 -40.951585 212.116104
-57.879471 -40.967342 212.197723
-57.325436 -40.826272 211.467026
-56.994517 -40.843335 211.555405
-56.663183 -40.860312 211.643341
-56.331428 -40.877198 211.730804
-55.996415 -40.891919 211.807053
-55.663908 -40.908669 211.893814
-55.296048 -40.899487 211.846252
-54.782362 -40.781627 211.235779
-54.237980 -40.639235 210.498230
-53.906407 -40.655472 210.582336
-53.574435 -40.671622 210.665985
-53.242062 -40.687680 210.749161
-52.907021 -40.701900 210.822815
-52.574678 -40.718400 210.908279
-52.239538 -40.732943 210.983612
-51.703816 -40.590218 210.244339
-51.370254 -40.605327 210.322601
-50.977763 -40.573744 210.159012
-50.504680 -40.477131 209.658585
-50.171867 -40.492370 209.737518
-49.838676 -40.507518 209.815979
-49.503805 -40.521505 209.888428
-49.169880 -40.536473 209.965958
-48.835585 -40.551350 210.043015
-48.500915 -40.566129 210.119568
-48.090097 -40.516968 209.864929
-47.642785 -40.436109 209.446106
-47.308349 -40.450562 209.520966
-46.972728 -40.464210 209.591660
-46.455400 -40.320353 208.846527
-46.121202 -40.334464 208.919617
-45.786659 -40.348487 208.992249
-45.451759 -40.362409 209.064362
-45.115419 -40.375259 209.130920
-44.779842 -40.388999 209.202087
-44.443920 -40.402641 209.272751
-44.107101 -40.415680 209.340286
-43.678716 -40.344351 208.970825
-43.263756 -40.284369 208.660141
-42.927808 -40.297579 208.728561
-42.495958 -40.220240 208.327972
-42.089219 -40.165582 208.044861
-41.753603 -40.178450 208.111511
-41.417666 -40.191223 208.177673
-41.080829 -40.203334 208.240402
-40.743926 -40.215586 208.303864
-40.407041 -40.228067 208.368515
-40.069841 -40.240452 208.432663
-39.731752 -40.252153 208.493271
-39.392065 -40.262428 208.546494
-38.903284 -40.119134 207.804276
-38.565055 -40.129910 207.860092
-38.226417 -40.140453 207.914703
-37.742556 -39.997292 207.173172
-37.405879 -40.008896 207.233276
-37.068907 -40.020399 207.292862
-36.730906 -40.030999 207.347763
-36.393371 -40.042314 207.406372
-36.055541 -40.053520 207.464417
-35.717427 -40.064626 207.521942
-35.377152 -40.073502 207.567917
-35.038486 -40.084396 207.624344
-34.585109 -39.962960 206.995346
-34.227556 -39.950909 206.932922
-33.887548 -39.959299 206.976379
-33.548970 -39.969565 207.029556
-33.210291 -39.979926 207.083221
-32.870802 -39.989521 207.132919
-32.415069 -39.856390 206.443344
-32.067907 -39.855320 206.437805
-31.729504 -39.865233 206.489151
-31.390322 -39.874374 206.536499
-31.051411 -39.884069 206.586716
-30.712265 -39.893676 206.636475
-30.372875 -39.903182 206.685715
-30.032741 -39.911920 206.730972
-29.692874 -39.921220 206.779144
-29.352772 -39.930420 206.826797
-29.012431 -39.939511 206.873886
-28.671403 -39.947866 206.917160
-28.330610 -39.956756 206.963211
-27.989584 -39.965535 207.008682
-27.648292 -39.974149 207.053299
-27.305341 -39.980553 207.086472
-26.872968 -39.854504 206.433578
