ply
format ascii 1.0
comment generated by convert_depth_to_ply.py
element vertex 1742
property float x
property float y
property float z
end_header
0.032404 0.120915 0.912915
0.034695 0.120433 0.909281
0.036982 0.120001 0.906020
0.039387 0.119982 0.905877
0.041713 0.119739 0.904038
0.044114 0.119723 0.903918
0.046513 0.119706 0.903791
0.048911 0.119689 0.903658
0.051334 0.119731 0.903976
0.053807 0.119879 0.905096
0.056209 0.119865 0.904988
0.058719 0.120072 0.906554
0.061161 0.120128 0.906980
0.063688 0.120343 0.908601
0.066352 0.120790 0.911972
0.068903 0.121008 0.913621
0.071549 0.121371 0.916358
0.074261 0.121820 0.919749
0.076902 0.122125 0.922053
0.079498 0.122343 0.923703
0.082418 0.123034 0.928914
0.086475 0.125329 0.946244
0.093881 0.132213 0.998217
0.099265 0.135948 1.026419
0.103060 0.137364 1.037112
0.106081 0.137704 1.039675
0.107795 0.136371 1.029612
0.101855 0.125661 0.948754
0.094761 0.114082 0.861325
0.096592 0.113539 0.857230
0.098275 0.112852 0.852039
0.100112 0.112369 0.848392
0.101742 0.111679 0.843188
0.103545 0.111205 0.839609
0.105531 0.110944 0.837635
0.107426 0.110600 0.835039
0.109263 0.110211 0.832103
0.111141 0.109877 0.829584
0.113085 0.109622 0.827656
0.115021 0.109368 0.825736
0.116946 0.109113 0.823815
0.118862 0.108861 0.821907
0.120768 0.108607 0.819994
0.122732 0.108414 0.818537
0.124788 0.108308 0.817734
0.126665 0.108052 0.815805
0.128783 0.108008 0.815466
0.130644 0.107753 0.813543
0.132555 0.107546 0.811984
0.134596 0.107450 0.811259
0.136695 0.107403 0.810901
0.138572 0.107186 0.809260
0.140611 0.107098 0.808602
0.142698 0.107050 0.808233
0.144500 0.106792 0.806285
0.146576 0.106740 0.805897
0.148649 0.106689 0.805510
0.150436 0.106436 0.803602
0.152500 0.106384 0.803208
0.154554 0.106326 0.802772
0.156610 0.106272 0.802363
0.158665 0.106218 0.801952
0.160719 0.106165 0.801554
0.162767 0.106109 0.801135
0.164812 0.106053 0.800710
0.166854 0.105996 0.800280
0.168892 0.105939 0.799845
0.171257 0.106085 0.800950
0.173301 0.106031 0.800544
0.175333 0.105972 0.800094
0.177362 0.105912 0.799642
0.179738 0.106058 0.800745
0.181791 0.106012 0.800403
0.184150 0.106144 0.801395
0.186213 0.106104 0.801098
0.188597 0.106246 0.802168
0.190995 0.106393 0.803273
0.193402 0.106541 0.804392
0.195817 0.106690 0.805521
0.198236 0.106838 0.806638
0.201044 0.107191 0.809300
0.203861 0.107541 0.811940
0.206703 0.107896 0.814623
0.209566 0.108255 0.817336
0.212537 0.108662 0.820408
0.215854 0.109235 0.824736
0.219723 0.110074 0.831067
0.223409 0.110805 0.836590
0.226547 0.111253 0.839966
0.228941 0.111330 0.840548
0.230251 0.110884 0.837180
0.232319 0.110807 0.836601
0.234371 0.110724 0.835978
0.236869 0.110852 0.836944
0.238297 0.110481 0.834143
0.239226 0.109889 0.829668
0.238754 0.108669 0.820458
0.238153 0.107413 0.810975
0.238726 0.106704 0.805625
0.239491 0.106093 0.801013
0.240961 0.105802 0.798815
0.242161 0.105399 0.795774
0.243879 0.105227 0.794471
0.245548 0.105036 0.793031
0.247244 0.104860 0.791703
0.248900 0.104671 0.790272
0.250803 0.104587 0.789642
0.252227 0.104307 0.787526
0.254112 0.104220 0.786872
0.255756 0.104037 0.785488
0.257398 0.103856 0.784121
0.259277 0.103773 0.783494
0.261140 0.103684 0.782826
0.262520 0.103408 0.780737
0.264383 0.103324 0.780102
0.266241 0.103239 0.779463
0.268095 0.103154 0.778821
0.269944 0.103068 0.778175
0.272116 0.103107 0.778463
0.274157 0.103095 0.778377
0.276346 0.103139 0.778707
0.278741 0.103259 0.779610
0.281132 0.103375 0.780486
0.283541 0.103496 0.781402
0.286489 0.103810 0.783776
0.291635 0.104911 0.792088
0.326795 0.116716 0.881213
0.353704 0.125426 0.946977
0.353479 0.124460 0.939680
0.356805 0.124748 0.941856
0.360182 0.125050 0.944138
0.364257 0.125588 0.948203
0.367277 0.125758 0.949487
0.371886 0.126467 0.954834
0.376981 0.127329 0.961346
0.382889 0.128453 0.969829
0.388272 0.129386 0.976877
0.394925 0.130728 0.987007
0.408457 0.134314 1.014082
0.430634 0.140677 1.062122
0.436739 0.141741 1.070154
0.439645 0.141760 1.070296
0.442106 0.141635 1.069358
0.444132 0.141374 1.067388
0.446547 0.141240 1.066370
0.449394 0.141242 1.066390
0.451797 0.141106 1.065366
-0.261386 0.083136 0.615102
-0.259989 0.083212 0.615669
-0.258085 0.083127 0.615038
-0.256163 0.083035 0.614353
-0.254264 0.082949 0.613718
-0.252399 0.082872 0.613154
-0.250537 0.082796 0.612592
-0.248649 0.082711 0.611959
-0.246766 0.082626 0.611327
-0.244885 0.082540 0.610694
-0.243006 0.082454 0.610058
-0.241130 0.082368 0.609421
-0.239257 0.082281 0.608781
-0.237370 0.082189 0.608098
-0.235502 0.082102 0.607455
-0.233637 0.082015 0.606810
-0.231775 0.081927 0.606163
-0.229916 0.081840 0.605517
-0.228383 0.081869 0.605726
-0.226521 0.081778 0.605058
-0.224785 0.081732 0.604720
-0.222938 0.081646 0.604077
-0.221483 0.081702 0.604494
-0.219658 0.081621 0.603898
-0.218090 0.081636 0.604006
-0.216387 0.081600 0.603741
-0.214960 0.081669 0.604248
-0.213501 0.081726 0.604669
-0.211677 0.081643 0.604057
-0.210234 0.081707 0.604530
-0.208781 0.081768 0.604982
-0.206958 0.081684 0.604361
-0.205497 0.081743 0.604796
-0.204038 0.081803 0.605242
-0.202429 0.081804 0.605249
-0.200757 0.081779 0.605062
-0.199291 0.081838 0.605502
-0.197464 0.081749 0.604842
-0.196006 0.081813 0.605312
-0.194524 0.081867 0.605712
-0.192705 0.081779 0.605062
-0.191240 0.081841 0.605523
-0.189754 0.081895 0.605926
-0.188273 0.081953 0.606350
-0.186799 0.082014 0.606803
-0.185321 0.082075 0.607252
-0.183644 0.082048 0.607053
-0.182013 0.082041 0.607001
-0.180528 0.082100 0.607441
-0.179040 0.082159 0.607877
-0.177549 0.082218 0.608311
-0.176054 0.082276 0.608741
-0.174553 0.082332 0.609155
-0.173052 0.082389 0.609580
-0.171864 0.082598 0.611126
-0.170355 0.082655 0.611545
-0.168835 0.082708 0.611935
-0.167319 0.082763 0.612347
-0.165818 0.082828 0.612825
-0.164599 0.083036 0.614361
-0.163070 0.083090 0.614764
-0.161785 0.083271 0.616102
-0.160316 0.083359 0.616757
-0.158794 0.083422 0.617221
-0.157540 0.083629 0.618750
-0.156009 0.083691 0.619208
-0.154752 0.083903 0.620778
-0.153480 0.084111 0.622317
-0.151933 0.084172 0.622766
-0.150639 0.084375 0.624274
-0.149325 0.084572 0.625728
-0.147795 0.084649 0.626302
-0.146485 0.084856 0.627831
-0.145158 0.085058 0.629326
-0.143846 0.085273 0.630916
-0.142529 0.085490 0.632523
-0.140956 0.085557 0.633018
-0.139620 0.085772 0.634605
-0.138277 0.085987 0.636196
-0.136922 0.086200 0.637771
-0.135562 0.086415 0.639366
-0.134440 0.086789 0.642134
-0.133068 0.087009 0.643761
-0.131927 0.087389 0.646568
-0.130528 0.087604 0.648164
-0.129135 0.087831 0.649839
-0.127735 0.088058 0.651518
-0.126546 0.088439 0.654339
-0.125122 0.088664 0.656004
-0.123909 0.089047 0.658838
-0.122666 0.089419 0.661590
-0.121241 0.089668 0.663429
-0.119990 0.090053 0.666285
-0.118734 0.090447 0.669199
-0.117466 0.090844 0.672136
-0.115968 0.091072 0.673824
-0.114663 0.091463 0.676711
-0.113355 0.091862 0.679667
-0.112040 0.092269 0.682677
-0.110755 0.092714 0.685973
-0.109556 0.093248 0.689919
-0.108390 0.093828 0.694212
-0.107068 0.094291 0.697637
-0.106073 0.095063 0.703347
-0.105005 0.095796 0.708772
-0.106088 0.098555 0.729188
-0.116047 0.109816 0.812500
-0.113620 0.109560 0.810612
-0.111721 0.109814 0.812491
-0.109739 0.109996 0.813834
-0.107610 0.110033 0.814112
-0.105478 0.110070 0.814384
-0.103344 0.110106 0.814649
-0.101208 0.110141 0.814908
-0.099070 0.110175 0.815158
-0.096930 0.110209 0.815409
-0.094788 0.110242 0.815652
-0.092825 0.110489 0.817484
-0.090676 0.110521 0.817719
-0.088692 0.110761 0.819496
-0.086619 0.110900 0.820527
-0.084544 0.111044 0.821586
-0.082464 0.111187 0.822646
-0.080369 0.111317 0.823612
-0.078345 0.111556 0.825380
-0.076249 0.111705 0.826479
-0.074134 0.111832 0.827422
-0.072085 0.112071 0.829187
-0.069974 0.112225 0.830325
-0.067836 0.112343 0.831199
-0.065765 0.112586 0.832995
-0.063682 0.112823 0.834751
-0.061549 0.112985 0.835948
-0.059383 0.113098 0.836790
-0.057274 0.113331 0.838510
-0.055159 0.113572 0.840291
-0.053039 0.113821 0.842135
-0.050972 0.114212 0.845026
-0.048856 0.114525 0.847342
-0.046762 0.114921 0.850277
-0.044681 0.115389 0.853740
-0.042581 0.115858 0.857210
-0.040466 0.116339 0.860765
-0.038334 0.116823 0.864350
-0.036308 0.117713 0.870928
-0.034269 0.118678 0.878068
-0.032243 0.119835 0.886631
-0.030284 0.121443 0.898529
-0.028283 0.123141 0.911093
-0.026155 0.124557 0.921565
-0.023809 0.125117 0.925709
-0.021431 0.125616 0.929407
-0.018927 0.125418 0.927941
-0.016487 0.125648 0.929641
-0.014041 0.125901 0.931515
-0.011564 0.125922 0.931671
-0.009102 0.126160 0.933427
-0.006606 0.125949 0.931867
-0.004133 0.126169 0.933495
-0.001649 0.126174 0.933532
0.000836 0.126174 0.933531
0.003327 0.126404 0.935232
0.005815 0.126387 0.935106
0.008302 0.126354 0.934867
0.010764 0.126049 0.932606
0.013189 0.125507 0.928601
0.015593 0.124964 0.924583
0.017946 0.124222 0.919086
0.020238 0.123282 0.912134
0.022494 0.122349 0.905228
0.024812 0.121900 0.901912
0.027114 0.121457 0.898632
0.029440 0.121188 0.896643
0.031773 0.120985 0.895142
0.034086 0.120739 0.893317
0.036460 0.120725 0.893217
0.038832 0.120711 0.893110
0.041204 0.120695 0.892998
0.043575 0.120679 0.892879
0.045950 0.120676 0.892853
0.048319 0.120658 0.892722
0.050688 0.120640 0.892585
0.053082 0.120682 0.892898
0.055529 0.120836 0.894036
0.057931 0.120882 0.894378
0.060384 0.121029 0.895465
0.062874 0.121233 0.896978
0.065422 0.121532 0.899187
0.068019 0.121898 0.901893
0.070590 0.122193 0.904076
0.073268 0.122648 0.907443
0.075909 0.123014 0.910156
0.078593 0.123424 0.913188
0.081407 0.124009 0.917512
0.084231 0.124573 0.921689
0.087241 0.125374 0.927615
0.092859 0.129775 0.960173
0.099780 0.135713 1.004106
0.103806 0.137506 1.017375
0.107422 0.138678 1.026049
0.109681 0.138085 1.021657
0.109593 0.134636 0.996141
0.100062 0.120023 0.888025
0.099163 0.116200 0.859738
0.100779 0.115431 0.854044
0.102512 0.114826 0.849571
0.104330 0.114339 0.845970
0.106128 0.113853 0.842369
0.108027 0.113493 0.839709
0.109872 0.113091 0.836735
0.111628 0.112617 0.833224
0.113573 0.112346 0.831224
0.115440 0.112011 0.828746
0.117444 0.111820 0.827327
0.119364 0.111556 0.825377
0.121284 0.111302 0.823501
0.123184 0.111039 0.821555
0.125238 0.110922 0.820684
0.127189 0.110719 0.819183
0.129247 0.110614 0.818408
0.131116 0.110353 0.816479
0.133232 0.110307 0.816133
0.135140 0.110091 0.814540
0.137188 0.109995 0.813828
0.139086 0.109783 0.812262
0.141119 0.109683 0.811522
0.143213 0.109633 0.811151
0.145037 0.109381 0.809281
0.147105 0.109316 0.808808
0.149186 0.109264 0.808419
0.151267 0.109213 0.808042
0.153061 0.108959 0.806161
0.155129 0.108904 0.805759
0.157194 0.108849 0.805352
0.159239 0.108782 0.804856
0.161300 0.108728 0.804451
0.163356 0.108671 0.804030
0.165408 0.108613 0.803604
0.167457 0.108555 0.803173
0.169502 0.108496 0.802737
0.171569 0.108452 0.802411
0.173927 0.108591 0.803439
0.175967 0.108530 0.802988
0.178036 0.108489 0.802683
0.180388 0.108618 0.803641
0.182468 0.108583 0.803383
0.184817 0.108707 0.804302
0.187213 0.108856 0.805398
0.189614 0.109004 0.806492
0.192020 0.109151 0.807584
0.194435 0.109301 0.808691
0.196924 0.109488 0.810075
0.199666 0.109810 0.812459
0.202181 0.110002 0.813877
0.205022 0.110365 0.816565
0.207975 0.110780 0.819637
0.211246 0.111355 0.823887
0.214561 0.111940 0.828220
0.218162 0.112661 0.833555
0.220536 0.112741 0.834143
0.222032 0.112374 0.831432
0.223349 0.111925 0.828110
0.224963 0.111633 0.825944
0.226562 0.111338 0.823767
0.228443 0.111187 0.822645
0.230017 0.110890 0.820448
0.231119 0.110373 0.816626
0.232081 0.109800 0.812385
0.232874 0.109159 0.807639
0.233934 0.108652 0.803893
0.234545 0.107949 0.798687
0.236015 0.107650 0.796474
0.237238 0.107244 0.793476
0.238706 0.106956 0.791341
0.240163 0.106667 0.789208
0.241624 0.106386 0.787125
0.243324 0.106213 0.785849
0.244954 0.106014 0.784372
0.246622 0.105834 0.783040
0.248261 0.105644 0.781638
0.250133 0.105556 0.780986
0.251536 0.105274 0.778896
0.253144 0.105080 0.777466
0.254789 0.104906 0.776174
0.256149 0.104617 0.774041
0.258001 0.104533 0.773418
0.259353 0.104249 0.771317
0.261194 0.104165 0.770690
0.263012 0.104072 0.770008
0.264831 0.103982 0.769340
0.266658 0.103896 0.768703
0.268480 0.103810 0.768063
0.270305 0.103725 0.767439
0.272117 0.103638 0.766791
0.273946 0.103558 0.766199
0.276620 0.103796 0.767959
0.278990 0.103917 0.768860
0.281497 0.104088 0.770120
0.284259 0.104349 0.772054
0.287191 0.104669 0.774419
0.290672 0.105182 0.778220
0.295010 0.105997 0.784247
0.324747 0.115862 0.857234
0.362142 0.128302 0.949275
0.363857 0.128016 0.947164
0.366528 0.128069 0.947551
0.371297 0.128848 0.953320
0.376100 0.129629 0.959098
0.381967 0.130764 0.967494
0.388393 0.132074 0.977182
0.394554 0.133276 0.986080
0.405052 0.135918 1.005629
0.423881 0.141303 1.045466
0.435619 0.144269 1.067410
0.438295 0.144214 1.067009
0.441064 0.144191 1.066837
0.443109 0.143933 1.064927
0.445518 0.143796 1.063913
0.448325 0.143788 1.063853
0.450757 0.143661 1.062912
-0.260266 0.084438 0.612465
-0.258927 0.084533 0.613154
-0.257480 0.084594 0.613595
-0.255561 0.084500 0.612911
-0.253240 0.084270 0.611246
-0.251807 0.084335 0.611717
-0.249889 0.084237 0.611007
-0.248080 0.084175 0.610558
-0.246201 0.084088 0.609928
-0.244708 0.084133 0.610253
-0.242449 0.083914 0.608660
-0.240577 0.083826 0.608023
-0.238708 0.083738 0.607384
-0.236825 0.083644 0.606702
-0.234961 0.083555 0.606059
-0.233100 0.083466 0.605415
-0.231241 0.083377 0.604768
-0.229390 0.083289 0.604132
-0.227850 0.083314 0.604310
-0.226088 0.083258 0.603901
-0.224267 0.083178 0.603325
-0.222428 0.083091 0.602694
-0.220962 0.083143 0.603071
-0.219154 0.083066 0.602514
-0.217697 0.083122 0.602919
-0.216154 0.083146 0.603090
-0.214467 0.083114 0.602862
-0.212998 0.083167 0.603244
-0.211434 0.083184 0.603365
-0.209760 0.083156 0.603168
-0.208311 0.083219 0.603621
-0.206850 0.083278 0.604046
-0.205034 0.083193 0.603434
-0.203592 0.083260 0.603919
-0.201957 0.083249 0.603836
-0.200305 0.083230 0.603701
-0.198839 0.083289 0.604129
-0.197360 0.083344 0.604525
-0.195556 0.083260 0.603920
-0.194081 0.083317 0.604334
-0.192431 0.083299 0.604203
-0.190800 0.083289 0.604129
-0.189329 0.083349 0.604567
-0.187861 0.083412 0.605021
-0.186357 0.083460 0.605366
-0.184882 0.083521 0.605815
-0.183405 0.083583 0.606260
-0.181917 0.083641 0.606679
-0.180239 0.083612 0.606468
-0.178627 0.083613 0.606476
-0.177139 0.083672 0.606908
-0.175648 0.083731 0.607337
-0.174150 0.083788 0.607750
-0.172960 0.083996 0.609255
-0.171457 0.084054 0.609676
-0.169951 0.084111 0.610094
-0.168434 0.084165 0.610483
-0.166921 0.084222 0.610894
-0.165427 0.084289 0.611380
-0.163916 0.084349 0.611814
-0.162683 0.084554 0.613305
-0.161177 0.084620 0.613786
-0.159935 0.084828 0.615292
-0.158421 0.084894 0.615771
-0.157111 0.085072 0.617064
-0.155643 0.085168 0.617756
-0.154370 0.085373 0.619245
-0.152843 0.085441 0.619735
-0.151577 0.085658 0.621309
-0.150281 0.085862 0.622789
-0.148971 0.086062 0.624244
-0.147451 0.086145 0.624847
-0.146111 0.086336 0.626229
-0.144814 0.086557 0.627831
-0.143268 0.086632 0.628379
-0.142189 0.086995 0.631012
-0.140866 0.087216 0.632616
-0.139296 0.087288 0.633133
-0.137956 0.087507 0.634720
-0.136604 0.087723 0.636292
-0.135488 0.088098 0.639014
-0.134120 0.088318 0.640604
-0.132744 0.088537 0.642194
-0.131387 0.088775 0.643924
-0.130217 0.089147 0.646621
-0.128812 0.089367 0.648214
-0.127417 0.089599 0.649896
-0.126018 0.089835 0.651608
-0.124811 0.090216 0.654373
-0.123588 0.090596 0.657130
-0.122163 0.090837 0.658878
-0.120940 0.091237 0.661782
-0.119488 0.091474 0.663496
-0.118219 0.091860 0.666298
-0.116957 0.092263 0.669222
-0.115680 0.092667 0.672154
-0.114348 0.093039 0.674850
-0.112927 0.093349 0.677099
-0.111763 0.093885 0.680987
-0.110429 0.094294 0.683953
-0.109081 0.094704 0.686927
-0.107719 0.095115 0.689909
-0.106536 0.095702 0.694166
-0.105213 0.096182 0.697644
-0.104211 0.096978 0.703418
-0.103317 0.097904 0.710138
-0.105346 0.101687 0.737578
-0.113601 0.111738 0.810481
-0.111895 0.112191 0.813763
-0.109991 0.112457 0.815698
-0.107997 0.112642 0.817041
-0.105858 0.112680 0.817314
-0.103716 0.112717 0.817580
-0.101572 0.112752 0.817839
-0.099426 0.112787 0.818090
-0.097279 0.112822 0.818342
-0.095129 0.112855 0.818586
-0.093054 0.112982 0.819502
-0.091002 0.113141 0.820660
-0.088927 0.113281 0.821672
-0.086850 0.113425 0.822714
-0.084768 0.113569 0.823761
-0.082675 0.113706 0.824752
-0.080658 0.113957 0.826573
-0.078562 0.114107 0.827666
-0.076444 0.114234 0.828586
-0.074395 0.114475 0.830335
-0.072290 0.114641 0.831541
-0.070148 0.114758 0.832385
-0.068079 0.115006 0.834187
-0.066001 0.115255 0.835988
-0.063873 0.115429 0.837250
-0.061774 0.115672 0.839014
-0.059670 0.115922 0.840826
-0.057556 0.116171 0.842638
-0.055435 0.116427 0.844495
-0.053308 0.116691 0.846405
-0.051190 0.116999 0.848640
-0.049106 0.117418 0.851677
-0.047024 0.117881 0.855039
-0.044935 0.118371 0.858596
-0.042831 0.118874 0.862240
-0.040849 0.119793 0.868909
-0.038853 0.120778 0.876054
-0.036874 0.121943 0.884504
-0.034839 0.123070 0.892678
-0.032717 0.124032 0.899651
-0.030512 0.124809 0.905287
-0.028259 0.125504 0.910328
-0.025951 0.126062 0.914375
-0.023612 0.126566 0.918034
-0.021256 0.127092 0.921846
-0.018845 0.127376 0.923909
-0.016416 0.127611 0.925615
-0.013981 0.127868 0.927478
-0.011536 0.128137 0.929426
-0.009063 0.128141 0.929456
-0.006598 0.128318 0.930745
-0.004111 0.127993 0.928387
-0.001632 0.127402 0.924101
0.000824 0.126813 0.919828
0.003246 0.125819 0.912616
0.005633 0.124896 0.905919
0.007971 0.123759 0.897674
0.010287 0.122882 0.891313
0.012611 0.122418 0.887944
0.014949 0.122208 0.886427
0.017307 0.122201 0.886377
0.019665 0.122194 0.886321
0.021984 0.121968 0.884685
0.024336 0.121956 0.884596
0.026688 0.121946 0.884520
0.029040 0.121937 0.884461
0.031391 0.121925 0.884375
0.033741 0.121913 0.884281
0.036091 0.121899 0.884182
0.038439 0.121884 0.884077
0.040787 0.121869 0.883966
0.043136 0.121858 0.883884
0.045508 0.121909 0.884257
0.047919 0.122056 0.885322
0.050267 0.122037 0.885185
0.052624 0.122039 0.885198
0.054999 0.122082 0.885508
0.057421 0.122221 0.886516
0.059884 0.122431 0.888043
0.062283 0.122501 0.888548
0.064763 0.122719 0.890131
0.067328 0.123078 0.892737
0.069876 0.123381 0.894933
0.072385 0.123599 0.896513
0.075049 0.124058 0.899841
0.077718 0.124496 0.903022
0.080418 0.124957 0.906362
0.083136 0.125418 0.909710
0.085940 0.125980 0.913782
0.088872 0.126693 0.918956
0.092960 0.128970 0.935472
0.099581 0.134553 0.975970
0.104969 0.138227 1.002617
0.108591 0.139452 1.011501
0.111252 0.139413 1.011222
0.113082 0.138360 1.003578
0.108050 0.129152 0.936788
0.102235 0.119445 0.866382
0.103392 0.118132 0.856860
0.105132 0.117528 0.852478
0.106933 0.117016 0.848763
0.108727 0.116517 0.845145
0.110502 0.116020 0.841536
0.112261 0.115525 0.837946
0.114204 0.115235 0.835846
0.116084 0.114894 0.833373
0.118027 0.114627 0.831434
0.119959 0.114359 0.829493
0.121883 0.114093 0.827561
0.123860 0.113886 0.826059
0.125775 0.113630 0.824201
0.127835 0.113511 0.823342
0.129719 0.113242 0.821393
0.131669 0.113040 0.819924
0.133718 0.112927 0.819107
0.135833 0.112874 0.818717
0.137707 0.112624 0.816904
0.139794 0.112553 0.816395
0.141699 0.112341 0.814856
0.143755 0.112253 0.814218
0.145828 0.112181 0.813694
0.147661 0.111929 0.811866
0.149750 0.111875 0.811477
0.151816 0.111806 0.810973
0.153895 0.111749 0.810558
0.155975 0.111693 0.810154
0.158051 0.111637 0.809745
0.160125 0.111580 0.809331
0.162198 0.111524 0.808931
0.164265 0.111466 0.808508
0.166034 0.111209 0.806646
0.168091 0.111150 0.806213
0.170447 0.111287 0.807209
0.172505 0.111229 0.806786
0.174556 0.111167 0.806341
0.176642 0.111130 0.806069
0.178996 0.111259 0.807010
0.181393 0.111412 0.808120
0.183496 0.111383 0.807908
0.185848 0.111505 0.808788
0.188258 0.111657 0.809892
0.190368 0.111631 0.809702
0.193122 0.111978 0.812219
0.195600 0.112159 0.813535
0.198338 0.112484 0.815889
0.200872 0.112687 0.817364
0.203719 0.113060 0.820069
0.206588 0.113437 0.822803
0.209825 0.114006 0.826930
0.212649 0.114340 0.829358
0.214903 0.114366 0.829540
0.216532 0.114061 0.827327
0.217863 0.113606 0.824033
0.219343 0.113238 0.821361
0.220550 0.112738 0.817732
0.222117 0.112429 0.815495
0.223680 0.112125 0.813287
0.224936 0.111674 0.810016
0.226352 0.111310 0.807375
0.227590 0.110866 0.804158
0.228704 0.110371 0.800567
0.230050 0.109996 0.797843
0.231123 0.109498 0.794232
0.232582 0.109191 0.792004
0.233803 0.108778 0.789009
0.235279 0.108490 0.786923
0.236759 0.108209 0.784886
0.238464 0.108035 0.783624
0.239895 0.107741 0.781491
0.241516 0.107537 0.780010
0.243206 0.107366 0.778772
0.244815 0.107164 0.777300
0.246234 0.106881 0.775254
0.248082 0.106789 0.774583
0.249460 0.106497 0.772467
0.251068 0.106307 0.771090
0.252686 0.106125 0.769768
0.254055 0.105842 0.767713
0.255872 0.105748 0.767036
0.257232 0.105469 0.765009
0.259038 0.105376 0.764331
0.260368 0.105091 0.762269
0.262163 0.104998 0.761589
0.263942 0.104899 0.760875
0.265257 0.104619 0.758842
0.267060 0.104534 0.758226
0.269169 0.104569 0.758484
0.271151 0.104555 0.758381
0.273287 0.104600 0.758708
0.275237 0.104574 0.758516
0.277558 0.104688 0.759344
0.279735 0.104746 0.759766
0.282069 0.104862 0.760607
0.285432 0.105356 0.764191
0.288331 0.105673 0.766492
0.291147 0.105956 0.768541
0.294201 0.106320 0.771184
0.299161 0.107364 0.778752
0.345280 0.123062 0.892620
0.370420 0.131120 0.951068
0.375214 0.131916 0.956839
0.380594 0.132905 0.964017
0.388411 0.134727 0.977228
0.395549 0.136290 0.988567
0.404805 0.138558 1.005014
0.420790 0.143084 1.037843
0.433167 0.146332 1.061402
0.436714 0.146574 1.063161
0.439599 0.146593 1.063295
0.442085 0.146478 1.062467
0.444489 0.146339 1.061456
0.447275 0.146326 1.061363
0.449716 0.146202 1.060459
-0.259654 0.085895 0.611026
-0.258328 0.085995 0.611736
-0.256448 0.085910 0.611135
-0.254542 0.085816 0.610466
-0.252661 0.085729 0.609846
-0.251187 0.085780 0.610210
-0.249303 0.085691 0.609573
-0.247511 0.085632 0.609158
-0.245636 0.085544 0.608528
-0.243763 0.085455 0.607895
-0.241892 0.085366 0.607261
-0.240024 0.085276 0.606625
-0.238159 0.085187 0.605986
-0.236280 0.085091 0.605305
-0.234420 0.085001 0.604663
-0.232573 0.084914 0.604047
-0.230719 0.084823 0.603402
-0.229172 0.084845 0.603556
-0.227315 0.084752 0.602893
-0.225596 0.084709 0.602586
-0.223762 0.084621 0.601967
-0.222196 0.084636 0.602067
-0.220478 0.084591 0.601751
-0.218917 0.084607 0.601861
-0.217219 0.084569 0.601596
-0.215647 0.084581 0.601677
-0.213974 0.084553 0.601476
-0.212494 0.084601 0.601818
-0.211067 0.084671 0.602316
-0.209277 0.084595 0.601779
-0.207845 0.084664 0.602272
-0.206410 0.084733 0.602761
-0.204913 0.084778 0.603077
-0.203123 0.084700 0.602528
-0.201680 0.084768 0.603009
-0.200186 0.084815 0.603343
-0.198397 0.084736 0.602785
-0.196940 0.084800 0.603237
-0.195279 0.084776 0.603066
-0.193650 0.084766 0.602992
-0.192192 0.084831 0.603454
-0.190686 0.084875 0.603769
-0.188892 0.084791 0.603171
-0.187427 0.084854 0.603624
-0.185959 0.084918 0.604074
-0.184488 0.084981 0.604522
-0.183013 0.085043 0.604966
-0.181485 0.085081 0.605238
-0.180004 0.085143 0.605676
-0.178520 0.085204 0.606111
-0.177033 0.085265 0.606543
-0.175542 0.085325 0.606971
-0.174045 0.085383 0.607383
-0.172549 0.085442 0.607806
-0.171049 0.085501 0.608226
-0.169546 0.085560 0.608643
-0.168033 0.085614 0.609030
-0.166524 0.085672 0.609440
-0.165041 0.085744 0.609953
-0.163536 0.085807 0.610396
-0.162296 0.086010 0.611844
-0.160810 0.086087 0.612389
-0.159493 0.086256 0.613593
-0.158051 0.086360 0.614334
-0.156739 0.086538 0.615601
-0.155280 0.086639 0.616315
-0.154002 0.086843 0.617768
-0.152488 0.086917 0.618297
-0.151224 0.087137 0.619861
-0.149888 0.087320 0.621160
-0.148616 0.087544 0.622760
-0.147108 0.087633 0.623391
-0.145763 0.087823 0.624738
-0.144469 0.088047 0.626335
-0.143162 0.088269 0.627917
-0.141623 0.088352 0.628501
-0.140300 0.088573 0.630075
-0.138972 0.088796 0.631659
-0.137635 0.089018 0.633243
-0.136286 0.089239 0.634811
-0.134933 0.089462 0.636398
-0.133799 0.089838 0.639073
-0.132426 0.090061 0.640660
-0.131042 0.090282 0.642231
-0.129664 0.090513 0.643876
-0.128505 0.090905 0.646666
-0.127095 0.091128 0.648255
-0.125696 0.091366 0.649945
-0.124296 0.091609 0.651673
-0.123077 0.091994 0.654413
-0.121840 0.092377 0.657136
-0.120415 0.092626 0.658909
-0.119184 0.093034 0.661808
-0.117729 0.093277 0.663538
-0.116472 0.093686 0.666448
-0.115178 0.094078 0.669235
-0.113893 0.094489 0.672163
-0.112593 0.094902 0.675098
-0.111277 0.095314 0.678030
-0.109950 0.095729 0.680982
-0.108607 0.096145 0.683943
-0.107251 0.096563 0.686912
-0.105937 0.097034 0.690265
-0.104748 0.097638 0.694564
-0.103549 0.098254 0.698945
-0.102520 0.099058 0.704661
-0.101618 0.100015 0.711474
-0.105240 0.105548 0.750831
-0.111679 0.114174 0.812191
-0.110228 0.114914 0.817459
-0.108173 0.115043 0.818375
-0.106112 0.115169 0.819274
-0.104089 0.115344 0.820515
-0.101937 0.115381 0.820775
-0.099783 0.115416 0.821027
-0.097628 0.115451 0.821280
-0.095471 0.115486 0.821524
-0.093311 0.115519 0.821762
-0.091328 0.115778 0.823605
-0.089236 0.115907 0.824524
-0.087162 0.116068 0.825667
-0.084987 0.116099 0.825884
-0.082972 0.116356 0.827711
-0.080875 0.116508 0.828796
-0.078758 0.116641 0.829738
-0.076718 0.116896 0.831559
-0.074606 0.117055 0.832690
-0.072549 0.117313 0.834524
-0.070399 0.117432 0.835371
-0.068324 0.117686 0.837179
-0.066238 0.117941 0.838987
-0.064143 0.118194 0.840789
-0.062038 0.118448 0.842593
-0.059933 0.118720 0.844528
-0.057808 0.118973 0.846330
-0.055744 0.119376 0.849198
-0.053607 0.119651 0.851156
-0.051543 0.120120 0.854493
-0.049382 0.120397 0.856457
-0.047306 0.120917 0.860158
-0.045355 0.121826 0.866624
-0.043387 0.122783 0.873435
-0.041471 0.124005 0.882129
-0.039356 0.124745 0.887388
-0.037075 0.125016 0.889321
-0.034786 0.125298 0.891322
-0.032526 0.125733 0.894417
-0.030267 0.126238 0.898015
-0.028037 0.126963 0.903167
-0.025736 0.127472 0.906788
-0.023421 0.128013 0.910635
-0.021113 0.128717 0.915646
-0.018717 0.128999 0.917653
-0.016303 0.129226 0.919266
-0.013875 0.129393 0.920454
-0.011388 0.128979 0.917513
-0.008869 0.127863 0.909574
-0.006356 0.126037 0.896580
-0.003921 0.124487 0.885554
-0.001555 0.123806 0.880712
0.000787 0.123591 0.879181
0.003127 0.123586 0.879145
0.005458 0.123375 0.877645
0.007793 0.123371 0.877620
0.010129 0.123367 0.877589
0.012461 0.123333 0.877343
0.014772 0.123132 0.875915
0.017100 0.123108 0.875748
0.019430 0.123101 0.875693
0.021759 0.123092 0.875632
0.024087 0.123082 0.875564
0.026415 0.123072 0.875491
0.028744 0.123065 0.875443
0.031086 0.123113 0.875784
0.033461 0.123276 0.876944
0.035793 0.123268 0.876886
0.038143 0.123320 0.877257
0.040528 0.123473 0.878345
0.042862 0.123464 0.878277
0.045221 0.123520 0.878678
0.047614 0.123663 0.879693
0.049951 0.123652 0.879614
0.052293 0.123654 0.879626
0.054652 0.123695 0.879918
0.057067 0.123853 0.881044
0.059433 0.123898 0.881363
0.061855 0.124049 0.882441
0.064354 0.124340 0.884510
0.066826 0.124561 0.886080
0.069307 0.124781 0.887644
0.071796 0.125001 0.889209
0.074427 0.125446 0.892377
0.076936 0.125666 0.893941
0.079601 0.126118 0.897158
0.082139 0.126350 0.898805
0.084998 0.127046 0.903763
0.087736 0.127531 0.907208
0.090720 0.128336 0.912937
0.094069 0.129602 0.921945
0.099901 0.134139 0.954214
0.105820 0.138563 0.985686
0.110046 0.140611 1.000252
0.113261 0.141301 1.005165
0.115860 0.141208 1.004499
0.115975 0.138160 0.982823
0.110458 0.128685 0.915422
0.106458 0.121348 0.863228
0.108012 0.120519 0.857326
0.109652 0.119818 0.852340
0.111133 0.118975 0.846343
0.112892 0.118456 0.842654
0.114856 0.118170 0.840618
0.116820 0.117893 0.838651
0.118685 0.117531 0.836070
0.120628 0.117256 0.834118
0.122562 0.116983 0.832175
0.124485 0.116709 0.830226
0.126418 0.116454 0.828414
0.128548 0.116386 0.827931
0.130465 0.116132 0.826118
0.132407 0.115907 0.824520
0.134488 0.115809 0.823823
0.136406 0.115577 0.822172
0.138481 0.115482 0.821497
0.140571 0.115403 0.820932
0.142449 0.115155 0.819170
0.144529 0.115075 0.818600
0.146639 0.115021 0.818218
0.148492 0.114770 0.816432
0.150561 0.114691 0.815871
0.152656 0.114634 0.815464
0.154751 0.114578 0.815066
0.156574 0.114325 0.813266
0.158623 0.114242 0.812676
0.160701 0.114181 0.812245
0.162821 0.114152 0.812038
0.164897 0.114093 0.811615
0.166928 0.114005 0.810990
0.169036 0.113971 0.810746
0.171102 0.113910 0.810311
0.173169 0.113851 0.809891
0.175569 0.114009 0.811021
0.177637 0.113952 0.810611
0.180034 0.114103 0.811691
0.182447 0.114261 0.812813
0.184531 0.114213 0.812467
0.186954 0.114372 0.813600
0.189378 0.114528 0.814711
0.191815 0.114689 0.815854
0.194254 0.114847 0.816979
0.197043 0.115206 0.819537
0.199882 0.115587 0.822242
0.202447 0.115802 0.823775
0.205251 0.116148 0.826236
0.207921 0.116412 0.828110
0.209871 0.116271 0.827111
0.211178 0.115781 0.823622
0.212739 0.115438 0.821185
0.214308 0.115107 0.818830
0.215547 0.114607 0.815273
0.217142 0.114304 0.813120
0.218412 0.113838 0.809805
0.219878 0.113483 0.807275
0.221399 0.113162 0.804992
0.222548 0.112659 0.801416
0.224081 0.112358 0.799277
0.225163 0.111839 0.795583
0.226676 0.111542 0.793467
0.227885 0.111102 0.790336
0.229232 0.110736 0.787735
0.230705 0.110438 0.785613
0.232168 0.110139 0.783493
0.233790 0.109922 0.781944
0.235270 0.109642 0.779950
0.236962 0.109464 0.778689
0.238384 0.109166 0.776569
0.240020 0.108971 0.775178
0.241675 0.108787 0.773870
0.243266 0.108578 0.772385
0.244713 0.108309 0.770468
0.246301 0.108105 0.769023
0.247912 0.107916 0.767672
0.249279 0.107624 0.765595
0.250856 0.107427 0.764194
0.252429 0.107231 0.762801
0.254009 0.107041 0.761450
0.255588 0.106854 0.760119
0.256925 0.106569 0.758094
0.258705 0.106472 0.757400
0.260023 0.106186 0.755371
0.261792 0.106089 0.754677
0.263252 0.105868 0.753106
0.264855 0.105708 0.751967
0.266632 0.105619 0.751333
0.268447 0.105546 0.750819
0.270699 0.105645 0.751523
0.272481 0.105561 0.750920
0.274243 0.105470 0.750273
0.276540 0.105584 0.751089
0.278650 0.105627 0.751389
0.281128 0.105806 0.752669
0.283436 0.105920 0.753479
0.286149 0.106183 0.755347
0.289414 0.106645 0.758635
0.292480 0.107028 0.761360
0.296393 0.107714 0.766237
0.300833 0.108580 0.772400
0.325537 0.116699 0.830157
0.371712 0.132354 0.941519
0.386052 0.136540 0.971293
0.394376 0.138556 0.985635
0.405304 0.141454 1.006253
0.419469 0.145437 1.034585
0.430494 0.148286 1.054853
0.434210 0.148597 1.057064
0.438166 0.148985 1.059827
0.441061 0.149010 1.060005
0.443460 0.148869 1.058997
0.446279 0.148869 1.059000
0.449164 0.148891 1.059155
-0.259043 0.087344 0.609587
-0.257658 0.087425 0.610151
-0.255783 0.087339 0.609552
-0.253958 0.087269 0.609064
-0.252084 0.087182 0.608455
-0.250596 0.087227 0.608773
-0.248716 0.087136 0.608138
-0.246905 0.087068 0.607664
-0.245070 0.086991 0.607126
-0.243556 0.087028 0.607379
-0.241343 0.086813 0.605884
-0.239470 0.086719 0.605225
-0.237609 0.086627 0.604587
-0.235734 0.086530 0.603906
-0.233890 0.086443 0.603297
-0.232348 0.086466 0.603461
-0.230491 0.086372 0.602805
-0.228632 0.086276 0.602136
-0.226919 0.086234 0.601842
-0.225089 0.086147 0.601233
-0.223246 0.086053 0.600579
-0.221771 0.086101 0.600914
-0.219985 0.086028 0.600404
-0.218506 0.086075 0.600733
-0.216734 0.086006 0.600251
-0.215297 0.086071 0.600700
-0.213717 0.086078 0.600753
-0.212054 0.086052 0.600572
-0.210630 0.086123 0.601069
-0.209138 0.086168 0.601380
-0.207578 0.086185 0.601497
-0.205933 0.086166 0.601368
-0.204488 0.086232 0.601827
-0.203024 0.086290 0.602234
-0.201404 0.086283 0.602182
-0.199771 0.086270 0.602091
-0.198297 0.086326 0.602483
-0.196484 0.086234 0.601840
-0.195005 0.086288 0.602220
-0.193364 0.086271 0.602102
-0.191747 0.086265 0.602057
-0.190289 0.086331 0.602514
-0.188765 0.086367 0.602767
-0.187301 0.086432 0.603219
-0.185665 0.086417 0.603118
-0.184060 0.086417 0.603120
-0.182589 0.086481 0.603563
-0.181075 0.086525 0.603871
-0.179575 0.086577 0.604232
-0.178094 0.086639 0.604665
-0.176610 0.086700 0.605096
-0.175124 0.086762 0.605523
-0.173630 0.086820 0.605934
-0.172172 0.086898 0.606478
-0.170641 0.086941 0.606774
-0.169141 0.087000 0.607189
-0.167632 0.087056 0.607575
-0.166126 0.087114 0.607984
-0.164668 0.087199 0.608574
-0.163156 0.087256 0.608976
-0.161908 0.087458 0.610381
-0.160436 0.087541 0.610963
-0.159114 0.087709 0.612134
-0.157681 0.087818 0.612896
-0.156366 0.087996 0.614136
-0.154925 0.088106 0.614907
-0.153633 0.088304 0.616290
-0.152133 0.088385 0.616856
-0.150870 0.088608 0.618411
-0.149530 0.088790 0.619678
-0.148262 0.089018 0.621273
-0.146769 0.089116 0.621954
-0.145478 0.089340 0.623516
-0.144143 0.089542 0.624925
-0.142820 0.089755 0.626414
-0.141511 0.089983 0.628007
-0.139975 0.090070 0.628612
-0.138647 0.090295 0.630183
-0.137313 0.090521 0.631764
-0.135968 0.090746 0.633329
-0.134618 0.090973 0.634912
-0.133261 0.091201 0.636503
-0.131897 0.091429 0.638100
-0.130728 0.091801 0.640691
-0.129341 0.092027 0.642274
-0.127960 0.092264 0.643926
-0.126595 0.092519 0.645703
-0.125376 0.092889 0.648286
-0.123971 0.093130 0.649968
-0.122575 0.093384 0.651742
-0.121341 0.093771 0.654442
-0.120098 0.094162 0.657173
-0.118665 0.094414 0.658929
-0.117423 0.094827 0.661811
-0.115971 0.095081 0.663583
-0.114677 0.095473 0.666323
-0.113397 0.095891 0.669237
-0.112103 0.096310 0.672160
-0.110793 0.096728 0.675078
-0.109471 0.097149 0.678018
-0.108135 0.097571 0.680966
-0.106784 0.097995 0.683922
-0.105418 0.098420 0.686886
-0.104240 0.099037 0.691195
-0.103022 0.099638 0.695392
-0.101860 0.100317 0.700126
-0.100878 0.101201 0.706294
-0.099963 0.102187 0.713178
-0.106654 0.111138 0.775647
-0.110664 0.117592 0.820690
-0.108573 0.117693 0.821400
-0.106492 0.117809 0.822208
-0.104461 0.117988 0.823453
-0.102302 0.118025 0.823714
-0.100140 0.118061 0.823967
-0.097978 0.118097 0.824220
-0.095812 0.118132 0.824465
-0.093645 0.118167 0.824704
-0.091641 0.118413 0.826422
-0.089480 0.118464 0.826779
-0.087461 0.118710 0.828497
-0.085291 0.118759 0.828840
-0.083192 0.118912 0.829909
-0.081164 0.119178 0.831761
-0.079040 0.119313 0.832707
-0.076992 0.119575 0.834534
-0.074873 0.119738 0.835669
-0.072809 0.120001 0.837509
-0.070735 0.120265 0.839347
-0.068651 0.120528 0.841185
-0.066564 0.120805 0.843117
-0.064460 0.121067 0.844946
-0.062358 0.121353 0.846945
-0.060267 0.121683 0.849242
-0.058201 0.122091 0.852090
-0.056065 0.122378 0.854098
-0.054012 0.122880 0.857598
-0.051856 0.123180 0.859691
-0.049868 0.123925 0.864891
-0.047853 0.124673 0.870116
-0.045945 0.125789 0.877900
-0.043783 0.126293 0.881416
-0.041536 0.126595 0.883523
-0.039250 0.126804 0.884988
-0.036913 0.126869 0.885442
-0.034683 0.127333 0.888675
-0.032384 0.127596 0.890515
-0.030135 0.128110 0.894098
-0.027867 0.128624 0.897688
-0.025572 0.129101 0.901013
-0.023213 0.129317 0.902522
-0.020758 0.128987 0.900220
-0.018310 0.128622 0.897674
-0.015828 0.127872 0.892442
-0.013315 0.126563 0.883302
-0.010866 0.125429 0.875391
-0.008518 0.125172 0.873594
-0.006183 0.124963 0.872135
-0.003861 0.124957 0.872092
-0.001537 0.124713 0.870390
0.000779 0.124712 0.870384
0.003096 0.124710 0.870372
0.005412 0.124708 0.870354
0.007728 0.124696 0.870271
0.010041 0.124651 0.869959
0.012340 0.124489 0.868828
0.014652 0.124483 0.868785
0.016963 0.124476 0.868737
0.019274 0.124468 0.868682
0.021584 0.124459 0.868621
0.023894 0.124450 0.868554
0.026210 0.124468 0.868683
0.028560 0.124633 0.869836
0.030881 0.124659 0.870015
0.033248 0.124852 0.871359
0.035574 0.124876 0.871527
0.037889 0.124861 0.871423
0.040270 0.125051 0.872752
0.042600 0.125073 0.872901
0.044917 0.125055 0.872778
0.047311 0.125243 0.874092
0.049645 0.125262 0.874222
0.051987 0.125299 0.874483
0.054387 0.125466 0.875645
0.056736 0.125506 0.875929
0.059130 0.125640 0.876863
0.061504 0.125723 0.877441
0.063953 0.125947 0.879006
0.066411 0.126171 0.880569
0.068948 0.126527 0.883050
0.071350 0.126618 0.883684
0.073905 0.126967 0.886125
0.076396 0.127187 0.887660
0.078948 0.127493 0.889796
0.081471 0.127737 0.891496
0.084139 0.128186 0.894629
0.086981 0.128870 0.899402
0.089704 0.129344 0.902710
0.092545 0.129960 0.907009
0.095638 0.130889 0.913494
0.100434 0.134045 0.935523
0.106886 0.139205 0.971537
0.111567 0.141869 0.990125
0.114801 0.142613 0.995321
0.117467 0.142634 0.995465
0.120060 0.142567 0.994996
0.121387 0.141032 0.984281
0.115569 0.131435 0.917309
0.111096 0.123734 0.863562
0.111785 0.121978 0.851303
0.113765 0.121673 0.849174
0.115558 0.121183 0.845757
0.117611 0.120979 0.844334
0.119579 0.120698 0.842368
0.121537 0.120416 0.840401
0.123345 0.119999 0.837489
0.125277 0.119715 0.835510
0.127376 0.119598 0.834691
0.129389 0.119406 0.833351
0.131453 0.119266 0.832378
0.133364 0.118994 0.830479
0.135507 0.118935 0.830066
0.137388 0.118651 0.828087
0.139315 0.118416 0.826446
0.141394 0.118315 0.825739
0.143300 0.118075 0.824065
0.145375 0.117979 0.823393
0.147498 0.117924 0.823010
0.149325 0.117638 0.821016
0.151438 0.117582 0.820623
0.153510 0.117496 0.820021
0.155354 0.117241 0.818240
0.157453 0.117182 0.817833
0.159550 0.117123 0.817421
0.161643 0.117063 0.817004
0.163736 0.117005 0.816600
0.165823 0.116945 0.816174
0.167905 0.116881 0.815734
0.169986 0.116820 0.815306
0.172344 0.116948 0.816196
0.174481 0.116924 0.816030
0.176614 0.116898 0.815848
0.178985 0.117028 0.816760
0.181400 0.117184 0.817849
0.183831 0.117347 0.818980
0.185985 0.117330 0.818865
0.188373 0.117460 0.819773
0.190790 0.117606 0.820788
0.193323 0.117818 0.822270
0.196073 0.118156 0.824631
0.198643 0.118380 0.826191
0.201430 0.118727 0.828611
0.203617 0.118716 0.828536
0.204834 0.118146 0.824557
0.206426 0.117802 0.822159
0.207727 0.117301 0.818659
0.209305 0.116965 0.816319
0.210654 0.116509 0.813137
0.212184 0.116162 0.810714
0.213762 0.115848 0.808522
0.215344 0.115542 0.806387
0.216603 0.115071 0.803100
0.218057 0.114712 0.800591
0.219346 0.114273 0.797528
0.220836 0.113947 0.795252
0.222248 0.113586 0.792736
0.223488 0.113146 0.789664
0.224995 0.112847 0.787580
0.226309 0.112459 0.784870
0.227785 0.112157 0.782761
0.229249 0.111855 0.780654
0.230703 0.111553 0.778548
0.232351 0.111350 0.777130
0.233818 0.111064 0.775136
0.235467 0.110870 0.773777
0.237093 0.110667 0.772364
0.238541 0.110386 0.770402
0.240375 0.110287 0.769708
0.241764 0.109987 0.767615
0.243384 0.109796 0.766282
0.244749 0.109494 0.764178
0.246350 0.109302 0.762836
0.247748 0.109024 0.760894
0.249277 0.108807 0.759383
0.250831 0.108605 0.757973
0.252230 0.108339 0.756116
0.253761 0.108134 0.754686
0.255351 0.107957 0.753452
0.256813 0.107729 0.751860
0.258384 0.107550 0.750610
0.259867 0.107338 0.749126
0.261482 0.107183 0.748044
0.263180 0.107063 0.747211
0.264945 0.106973 0.746582
0.266706 0.106883 0.745950
0.268519 0.106814 0.745471
0.270312 0.106738 0.744943
0.272060 0.106646 0.744302
0.274256 0.106730 0.744886
0.275998 0.106637 0.744238
0.278258 0.106744 0.744985
0.280478 0.106835 0.745615
0.282836 0.106976 0.746601
0.285500 0.107230 0.748374
0.288366 0.107556 0.750650
0.291245 0.107883 0.752929
0.294644 0.108396 0.756511
0.298537 0.109083 0.761305
0.302495 0.109784 0.766198
0.308469 0.111202 0.776097
0.362848 0.129935 0.906840
0.414239 0.147358 1.028438
0.424656 0.150072 1.047379
0.428058 0.150288 1.048885
0.434175 0.151448 1.056978
0.437434 0.151603 1.058059
0.440942 0.151841 1.059721
0.442929 0.151555 1.057729
0.445676 0.151532 1.057569
0.449079 0.151731 1.058954
-0.258020 0.088644 0.607180
-0.257047 0.088866 0.608703
-0.255176 0.088779 0.608105
-0.253370 0.088713 0.607655
-0.251496 0.088623 0.607036
-0.250001 0.088665 0.607329
-0.248126 0.088573 0.606695
-0.246286 0.088492 0.606143
-0.244510 0.088433 0.605740
-0.242636 0.088338 0.605086
-0.240785 0.088250 0.604481
-0.238926 0.088157 0.603849
-0.237388 0.088183 0.604024
-0.235511 0.088082 0.603334
-0.233653 0.087987 0.602684
-0.231797 0.087892 0.602031
-0.229944 0.087796 0.601376
-0.228234 0.087754 0.601088
-0.226389 0.087659 0.600437
-0.224566 0.087572 0.599837
-0.222991 0.087580 0.599894
-0.221323 0.087552 0.599700
-0.219725 0.087551 0.599695
-0.218065 0.087525 0.599519
-0.216469 0.087525 0.599518
-0.214817 0.087502 0.599361
-0.213400 0.087575 0.599862
-0.211897 0.087614 0.600126
-0.210140 0.087547 0.599670
-0.208715 0.087619 0.600163
-0.207287 0.087691 0.600653
-0.205779 0.087730 0.600919
-0.204012 0.087658 0.600425
-0.202576 0.087728 0.600907
-0.201106 0.087784 0.601291
-0.199482 0.087774 0.601221
-0.197862 0.087765 0.601160
-0.196375 0.087816 0.601508
-0.194578 0.087727 0.600902
-0.193128 0.087795 0.601365
-0.191638 0.087846 0.601714
-0.189991 0.087825 0.601569
-0.188381 0.087821 0.601542
-0.186883 0.087869 0.601873
-0.185388 0.087920 0.602220
-0.183630 0.087845 0.601710
-0.182162 0.087910 0.602152
-0.180684 0.087970 0.602567
-0.179209 0.088034 0.603002
-0.177732 0.088097 0.603434
-0.176251 0.088160 0.603863
-0.174767 0.088222 0.604289
-0.173276 0.088282 0.604699
-0.171786 0.088343 0.605119
-0.170293 0.088404 0.605537
-0.168796 0.088464 0.605951
-0.167290 0.088520 0.606336
-0.165787 0.088580 0.606743
-0.164282 0.088639 0.607148
-0.162773 0.088698 0.607549
-0.161563 0.088921 0.609080
-0.160060 0.088987 0.609530
-0.158789 0.089184 0.610882
-0.157321 0.089274 0.611497
-0.156085 0.089499 0.613035
-0.154762 0.089677 0.614257
-0.153310 0.089784 0.614991
-0.151978 0.089965 0.616228
-0.150523 0.090075 0.616985
-0.149250 0.090299 0.618517
-0.147905 0.090483 0.619778
-0.146424 0.090587 0.620492
-0.145135 0.090814 0.622046
-0.143844 0.091045 0.623625
-0.142540 0.091273 0.625189
-0.141219 0.091495 0.626709
-0.139645 0.091557 0.627133
-0.138534 0.091927 0.629670
-0.136990 0.092016 0.630276
-0.135648 0.092244 0.631837
-0.134301 0.092474 0.633417
-0.132947 0.092706 0.635003
-0.131585 0.092937 0.636590
-0.130412 0.093310 0.639143
-0.129029 0.093541 0.640722
-0.127637 0.093771 0.642301
-0.126253 0.094013 0.643960
-0.124889 0.094277 0.645767
-0.123651 0.094645 0.648288
-0.122245 0.094893 0.649988
-0.120849 0.095157 0.651791
-0.119601 0.095545 0.654453
-0.118349 0.095942 0.657173
-0.116946 0.096227 0.659121
-0.115661 0.096619 0.661809
-0.114252 0.096918 0.663856
-0.112934 0.097305 0.666507
-0.111613 0.097701 0.669222
-0.110318 0.098134 0.672184
-0.108992 0.098553 0.675054
-0.107662 0.098981 0.677988
-0.106356 0.099447 0.681182
-0.105004 0.099886 0.684184
-0.103784 0.100468 0.688172
-0.102454 0.100962 0.691556
-0.101236 0.101586 0.695833
-0.100073 0.102291 0.700661
-0.099215 0.103339 0.707841
-0.098087 0.104142 0.713339
-0.108157 0.117101 0.802104
-0.108775 0.120141 0.822928
-0.106813 0.120399 0.824692
-0.104833 0.120646 0.826386
-0.102666 0.120684 0.826647
-0.100497 0.120721 0.826901
-0.098326 0.120758 0.827155
-0.096153 0.120794 0.827400
-0.093979 0.120829 0.827640
-0.091888 0.120977 0.828651
-0.089798 0.121133 0.829722
-0.087614 0.121166 0.829949
-0.085594 0.121435 0.831790
-0.083503 0.121613 0.833007
-0.081453 0.121863 0.834721
-0.079338 0.122027 0.835841
-0.077266 0.122269 0.837504
-0.075201 0.122536 0.839333
-0.073142 0.122830 0.841344
-0.071057 0.123097 0.843174
-0.068962 0.123364 0.845003
-0.066933 0.123771 0.847791
-0.064832 0.124069 0.849830
-0.062741 0.124406 0.852141
-0.060689 0.124850 0.855182
-0.058590 0.125229 0.857778
-0.056509 0.125680 0.860863
-0.054547 0.126441 0.866081
-0.052475 0.127006 0.869948
-0.050426 0.127680 0.874563
-0.048263 0.128118 0.877566
-0.046025 0.128391 0.879436
-0.043690 0.128407 0.879547
-0.041366 0.128459 0.879904
-0.039094 0.128688 0.881470
-0.036809 0.128904 0.882947
-0.034531 0.129171 0.884781
-0.032233 0.129399 0.886343
-0.029935 0.129666 0.888169
-0.027614 0.129867 0.889546
-0.025187 0.129562 0.887458
-0.022697 0.128835 0.882478
-0.020205 0.127927 0.876261
-0.017806 0.127452 0.873002
-0.015451 0.127189 0.871202
-0.013088 0.126758 0.868253
-0.010755 0.126503 0.866503
-0.008436 0.126312 0.865194
-0.006131 0.126259 0.864835
-0.003829 0.126259 0.864830
-0.001525 0.126060 0.863472
0.000773 0.126012 0.863137
0.003071 0.126056 0.863441
0.005367 0.126007 0.863106
0.007664 0.126004 0.863082
0.009961 0.125999 0.863052
0.012257 0.125994 0.863016
0.014559 0.126030 0.863266
0.016856 0.126027 0.863242
0.019152 0.126019 0.863188
0.021448 0.126010 0.863128
0.023743 0.126000 0.863061
0.026080 0.126190 0.864358
0.028379 0.126185 0.864329
0.030686 0.126212 0.864513
0.033038 0.126408 0.865850
0.035360 0.126470 0.866277
0.037712 0.126627 0.867351
0.040027 0.126648 0.867496
0.042401 0.126843 0.868831
0.044720 0.126861 0.868955
0.047026 0.126842 0.868828
0.049427 0.127071 0.870393
0.051736 0.127050 0.870253
0.054134 0.127244 0.871582
0.056459 0.127255 0.871656
0.058883 0.127481 0.873204
0.061203 0.127472 0.873143
0.063665 0.127750 0.875047
0.066111 0.127977 0.876599
0.068525 0.128128 0.877636
0.071027 0.128428 0.879692
0.073497 0.128653 0.881232
0.075910 0.128767 0.882014
0.078392 0.128989 0.883532
0.080882 0.129210 0.885049
0.083438 0.129522 0.887182
0.086115 0.129998 0.890446
0.088811 0.130476 0.893721
0.091523 0.130955 0.896996
0.094328 0.131537 0.900982
0.097254 0.132254 0.905895
0.101246 0.134353 0.920271
0.108040 0.139982 0.958829
0.113042 0.143082 0.980065
0.116623 0.144286 0.988311
0.119769 0.144909 0.992581
0.122481 0.144993 0.993153
0.125098 0.144963 0.992946
0.128156 0.145434 0.996172
0.128242 0.142582 0.976638
0.119883 0.130639 0.894837
0.117088 0.125109 0.856955
0.118415 0.124109 0.850106
0.120291 0.123712 0.847385
0.122301 0.123464 0.845687
0.124216 0.123131 0.843404
0.126210 0.122887 0.841732
0.128338 0.122780 0.840999
0.130338 0.122555 0.839462
0.132447 0.122439 0.838669
0.134624 0.122390 0.838329
0.136531 0.122099 0.836340
0.138526 0.121896 0.834949
0.140585 0.121755 0.833980
0.142517 0.121510 0.832302
0.144614 0.121410 0.831619
0.146483 0.121126 0.829671
0.148613 0.121062 0.829232
0.150498 0.120803 0.827461
0.152583 0.120711 0.826828
0.154662 0.120615 0.826176
0.156529 0.120360 0.824428
0.158586 0.120256 0.823714
0.160443 0.120005 0.821996
0.162547 0.119944 0.821577
0.164596 0.119843 0.820886
0.166693 0.119780 0.820455
0.168846 0.119759 0.820310
0.170938 0.119695 0.819871
0.173364 0.119864 0.821026
0.175801 0.120036 0.822205
0.178239 0.120204 0.823356
0.180404 0.120186 0.823236
0.182855 0.120357 0.824408
0.185306 0.120524 0.825553
0.187750 0.120683 0.826640
0.190146 0.120807 0.827490
0.192612 0.120973 0.828623
0.195179 0.121198 0.830163
0.197578 0.121314 0.830962
0.199755 0.121293 0.830818
0.200913 0.120660 0.826483
0.201875 0.119925 0.821446
0.203133 0.119380 0.817711
0.204375 0.118836 0.813989
0.205738 0.118374 0.810821
0.207356 0.118066 0.808715
0.208965 0.117760 0.806620
0.210502 0.117420 0.804287
0.212007 0.117069 0.801882
0.213576 0.116760 0.799769
0.215114 0.116441 0.797579
0.216423 0.116004 0.794589
0.217804 0.115615 0.791922
0.219303 0.115294 0.789729
0.220574 0.114862 0.786766
0.222077 0.114557 0.784677
0.223574 0.114255 0.782607
0.225055 0.113950 0.780521
0.226395 0.113580 0.777986
0.227934 0.113316 0.776177
0.229469 0.113054 0.774383
0.230918 0.112755 0.772337
0.232612 0.112581 0.771140
0.234223 0.112369 0.769687
0.235633 0.112065 0.767610
0.237294 0.111885 0.766376
0.238897 0.111681 0.764976
0.240279 0.111378 0.762900
0.242079 0.111272 0.762175
0.243487 0.110989 0.760236
0.244840 0.110686 0.758160
0.246375 0.110469 0.756678
0.247958 0.110277 0.755364
0.249331 0.109996 0.753439
0.250858 0.109787 0.752004
0.252398 0.109587 0.750632
0.253912 0.109378 0.749206
0.255475 0.109194 0.747943
0.256809 0.108916 0.746036
0.258229 0.108677 0.744404
0.259841 0.108523 0.743347
0.261544 0.108409 0.742567
0.263265 0.108304 0.741848
0.265015 0.108213 0.741220
0.266761 0.108120 0.740589
0.268517 0.108034 0.739996
0.270254 0.107941 0.739359
0.271986 0.107848 0.738720
0.273714 0.107754 0.738078
0.275438 0.107660 0.737433
0.277698 0.107775 0.738226
0.279945 0.107884 0.738969
0.282589 0.108143 0.740744
0.284951 0.108292 0.741762
0.287691 0.108581 0.743742
0.290569 0.108917 0.746048
0.293276 0.109186 0.747888
0.296217 0.109538 0.750296
0.299526 0.110019 0.753597
0.303025 0.110564 0.757328
0.309404 0.112146 0.768160
0.363194 0.130778 0.895788
0.428112 0.153148 1.049015
0.437890 0.155631 1.066022
