ply
format ascii 1.0
comment generated by convert_depth_to_ply.py
element vertex 1628
property float x
property float y
property float z
end_header
-0.053737 -0.228237 14.613506
-0.026697 -0.228237 14.613520
0.000343 -0.228242 14.613790
0.027394 -0.228326 14.619173
0.054444 -0.228324 14.619034
0.081493 -0.228321 14.618842
0.108541 -0.228317 14.618604
0.135588 -0.228312 14.618311
0.162698 -0.228397 14.623760
0.190047 -0.228747 14.646155
0.217141 -0.228740 14.645710
0.244629 -0.229104 14.669008
0.271852 -0.229171 14.673303
0.298990 -0.229162 14.672707
0.326125 -0.229152 14.672056
0.353257 -0.229141 14.671360
0.380350 -0.229108 14.669288
0.407347 -0.229026 14.664014
0.434284 -0.228922 14.657385
0.460840 -0.228642 14.639439
0.487897 -0.228627 14.638482
0.514948 -0.228612 14.637493
0.541993 -0.228595 14.636435
0.568273 -0.228273 14.615797
0.596067 -0.228560 14.634188
0.623094 -0.228541 14.632979
0.650472 -0.228648 14.639787
0.675306 -0.227887 14.591068
0.702944 -0.228094 14.604358
0.636598 -0.198919 12.736337
0.331215 -0.099801 6.390022
0.341291 -0.099292 6.357465
0.349688 -0.098345 6.296834
0.360276 -0.098056 6.278303
0.370796 -0.097767 6.259789
0.381049 -0.097427 6.238020
0.391736 -0.097215 6.224430
0.402371 -0.097002 6.210806
0.412998 -0.096799 6.197821
0.423577 -0.096596 6.184843
0.434110 -0.096394 6.171883
0.444870 -0.096251 6.162745
0.455475 -0.096083 6.151960
0.465875 -0.095880 6.139008
0.476497 -0.095732 6.129521
0.487007 -0.095569 6.119066
0.497275 -0.095367 6.106121
0.507739 -0.095210 6.096101
0.518172 -0.095055 6.086160
0.528639 -0.094912 6.077024
0.539267 -0.094804 6.070086
0.549866 -0.094695 6.063112
0.560876 -0.094660 6.060851
0.571683 -0.094592 6.056530
0.582642 -0.094552 6.053963
0.593617 -0.094516 6.051645
0.604702 -0.094498 6.050520
0.615872 -0.094494 6.050266
0.627342 -0.094536 6.052921
0.638160 -0.094479 6.049294
0.649498 -0.094500 6.050649
0.660801 -0.094516 6.051630
0.670915 -0.094363 6.041868
0.681716 -0.094311 6.038518
0.696460 -0.094797 6.069635
0.699221 -0.093662 5.996993
1.299131 -0.171303 10.968161
0.765674 -0.099409 6.364919
0.651774 -0.083339 5.336005
0.666525 -0.083953 5.375347
1.853874 -0.230075 14.731173
1.871746 -0.228927 14.657673
1.876911 -0.226280 14.488179
1.916070 -0.227748 14.582180
1.955875 -0.229251 14.678412
1.979526 -0.228845 14.652437
2.002277 -0.228348 14.620592
2.028727 -0.228280 14.616242
2.055251 -0.228222 14.612542
2.085805 -0.228607 14.637214
2.113260 -0.228648 14.639781
2.143016 -0.228933 14.658029
2.172896 -0.229223 14.676654
2.200320 -0.229251 14.678436
2.226860 -0.229187 14.674348
2.254591 -0.229246 14.678115
2.284336 -0.229506 14.694744
2.314572 -0.229808 14.714105
2.341898 -0.229818 14.714734
2.369888 -0.229892 14.719473
2.400196 -0.230187 14.738335
2.430897 -0.230512 14.759157
2.457462 -0.230442 14.754690
2.485726 -0.230531 14.760403
2.515388 -0.230747 14.774209
2.542787 -0.230753 14.774565
2.572688 -0.230983 14.789301
2.600007 -0.230979 14.789034
2.626527 -0.230904 14.784280
2.653021 -0.230829 14.779481
2.684729 -0.231205 14.803523
2.711181 -0.231125 14.798398
2.737650 -0.231048 14.793460
2.764073 -0.230968 14.788376
2.791914 -0.231008 14.790907
2.818370 -0.230933 14.786121
2.847667 -0.231090 14.796188
2.873999 -0.231006 14.790806
2.900346 -0.230925 14.785599
2.926665 -0.230843 14.780350
2.952928 -0.230758 14.774915
2.980367 -0.230766 14.775416
3.006611 -0.230682 14.770031
3.032826 -0.230597 14.764606
3.058971 -0.230509 14.758939
3.085128 -0.230423 14.753430
3.111220 -0.230333 14.747705
3.137317 -0.230246 14.742108
3.163385 -0.230158 14.736471
3.195046 -0.230475 14.756765
3.221678 -0.230426 14.753681
3.247707 -0.230336 14.747911
3.273705 -0.230246 14.742102
3.304768 -0.230510 14.759005
3.330744 -0.230417 14.753098
3.358016 -0.230416 14.752982
3.383903 -0.230320 14.746835
3.409796 -0.230225 14.740809
3.441868 -0.230547 14.761379
3.468193 -0.230481 14.757172
3.494039 -0.230385 14.751008
3.519853 -0.230288 14.744804
3.545633 -0.230190 14.738561
3.571351 -0.230090 14.732150
3.597067 -0.229992 14.725833
3.626718 -0.230144 14.735596
3.654060 -0.230149 14.735904
3.679667 -0.230045 14.729259
3.706808 -0.230038 14.728811
3.732351 -0.229933 14.722062
3.762362 -0.230102 14.732908
3.789343 -0.230085 14.731820
3.816271 -0.230065 14.730546
3.841854 -0.229965 14.724131
3.867256 -0.229855 14.717116
3.892576 -0.229743 14.709894
3.918100 -0.229643 14.703534
3.943348 -0.229529 14.696234
3.974238 -0.229743 14.709916
4.000204 -0.229671 14.705316
4.027200 -0.229659 14.704533
4.053842 -0.229627 14.702479
4.085454 -0.229875 14.718355
4.110837 -0.229771 14.711730
4.143929 -0.230097 14.732600
4.177286 -0.230434 14.754135
4.202623 -0.230326 14.747247
4.236212 -0.230669 14.769217
-4.347208 -0.196739 14.326733
-4.320669 -0.196738 14.326636
-4.296485 -0.196844 14.334394
-4.272249 -0.196950 14.342074
-4.245353 -0.196933 14.340863
-4.220988 -0.197035 14.348241
-4.190605 -0.196854 14.335126
-4.166275 -0.196958 14.342683
-4.141249 -0.197030 14.347926
-4.111166 -0.196861 14.335600
-4.084770 -0.196867 14.336055
-4.060109 -0.196958 14.342648
-4.035639 -0.197059 14.350003
-4.010877 -0.197147 14.356412
-3.986333 -0.197247 14.363691
-3.961704 -0.197344 14.370762
-3.935007 -0.197338 14.370373
-3.910364 -0.197437 14.377531
-3.885445 -0.197522 14.383767
-3.860730 -0.197620 14.390851
-3.830091 -0.197413 14.375795
-3.805341 -0.197509 14.382789
-3.780492 -0.197601 14.389503
-3.755508 -0.197688 14.395796
-3.730651 -0.197782 14.402669
-3.703816 -0.197772 14.401951
-3.674613 -0.197635 14.391946
-3.648447 -0.197660 14.393774
-3.622749 -0.197711 14.397494
-3.594618 -0.197629 14.391524
-3.566186 -0.197529 14.384254
-3.541146 -0.197617 14.390658
-3.510153 -0.197372 14.372784
-3.484073 -0.197401 14.374908
-3.458217 -0.197443 14.377995
-3.429874 -0.197343 14.370709
-3.401881 -0.197262 14.364790
-3.373669 -0.197166 14.357841
-3.344971 -0.197041 14.348700
-3.319763 -0.197121 14.354504
-3.293777 -0.197155 14.357008
-3.265254 -0.197037 14.348409
-3.237672 -0.196974 14.343833
-3.209043 -0.196846 14.334504
-3.180903 -0.196746 14.327225
-3.155612 -0.196822 14.332766
-3.130339 -0.196901 14.338478
-3.104991 -0.196976 14.343943
-3.078142 -0.196956 14.342511
-3.052748 -0.197030 14.347893
-3.024550 -0.196922 14.340072
-2.997476 -0.196887 14.337488
-2.972034 -0.196959 14.342734
-2.946611 -0.197034 14.348168
-2.921113 -0.197105 14.353333
-2.895588 -0.197175 14.358459
-2.870055 -0.197246 14.363641
-2.843502 -0.197248 14.363766
-2.813367 -0.196999 14.345627
-2.787830 -0.197070 14.350812
-2.762219 -0.197137 14.355716
-2.736583 -0.197204 14.360578
-2.710920 -0.197270 14.365396
-2.683962 -0.197242 14.363376
-2.658259 -0.197307 14.368103
-2.628696 -0.197084 14.351851
-2.602981 -0.197148 14.356486
-2.577241 -0.197211 14.361081
-2.546498 -0.196888 14.337602
-2.519724 -0.196869 14.336211
-2.490582 -0.196663 14.321177
-2.464397 -0.196688 14.323001
-2.433922 -0.196367 14.299664
-2.408188 -0.196427 14.303969
-2.381293 -0.196391 14.301399
-2.355527 -0.196449 14.305634
-2.329736 -0.196507 14.309803
-2.300526 -0.196274 14.292830
-2.274769 -0.196333 14.297168
-2.248949 -0.196389 14.301202
-2.223107 -0.196443 14.305190
-2.194005 -0.196208 14.288053
-2.168129 -0.196259 14.291755
-2.141266 -0.196221 14.288960
-2.115389 -0.196273 14.292765
-2.089526 -0.196328 14.296756
-2.063607 -0.196379 14.300466
-2.037760 -0.196438 14.304772
-2.012983 -0.196603 14.316801
-1.989618 -0.196912 14.339332
-1.963570 -0.196961 14.342872
-1.940390 -0.197302 14.367746
-1.915179 -0.197444 14.378063
-1.889022 -0.197491 14.381468
-1.862851 -0.197538 14.384868
-1.836657 -0.197583 14.388182
-1.810456 -0.197629 14.391538
-1.784226 -0.197673 14.394761
-1.757790 -0.197696 14.396391
-1.730285 -0.197597 14.389184
-1.702116 -0.197418 14.376144
-1.675869 -0.197459 14.379173
-1.649616 -0.197502 14.382256
-1.623335 -0.197542 14.385190
-1.597038 -0.197582 14.388080
-1.571467 -0.197714 14.397721
-1.546687 -0.197952 14.415060
-1.520304 -0.197990 14.417813
-1.493910 -0.198028 14.420549
-1.467503 -0.198065 14.423262
-1.440272 -0.197990 14.417830
-1.412551 -0.197844 14.407195
-1.386139 -0.197879 14.409755
-1.359709 -0.197913 14.412218
-1.332426 -0.197822 14.405573
-1.304888 -0.197688 14.395834
-1.279312 -0.197852 14.407779
-1.253860 -0.198043 14.421668
-1.227370 -0.198074 14.423965
-1.200862 -0.198104 14.426139
-1.174342 -0.198134 14.428267
-1.146943 -0.198012 14.419449
-1.119619 -0.197899 14.411177
-1.093976 -0.198084 14.424655
-1.068154 -0.198245 14.436395
-1.041580 -0.198271 14.438307
-1.014128 -0.198128 14.427842
-0.986942 -0.198029 14.420686
-0.960376 -0.198054 14.422445
-0.935177 -0.198369 14.445419
-0.908552 -0.198392 14.447087
-0.881919 -0.198414 14.448697
-0.855275 -0.198435 14.450251
-0.828625 -0.198456 14.451771
-0.801965 -0.198476 14.453232
-0.775297 -0.198496 14.454636
-0.747488 -0.198214 14.434117
-0.720283 -0.198077 14.424164
-0.692816 -0.197855 14.407989
-0.665944 -0.197792 14.403418
-0.640288 -0.198100 14.425838
-0.613936 -0.198210 14.433849
-0.583549 -0.196968 14.343407
-0.554625 -0.196125 14.282028
-0.531364 -0.197301 14.367630
-0.518778 -0.202772 14.766073
-0.464457 -0.191633 13.954887
-0.231932 -0.101327 7.378757
-0.195598 -0.090799 6.612046
-0.384258 -0.190279 13.856266
-0.374732 -0.198828 14.478837
-0.350064 -0.200041 14.567164
-0.321252 -0.198891 14.483438
-0.292680 -0.197694 14.396251
-0.266007 -0.197668 14.394337
-0.239272 -0.197584 14.388272
-0.212648 -0.197584 14.388224
-0.186028 -0.197588 14.388536
-0.159408 -0.197592 14.388799
-0.133045 -0.197981 14.417142
-0.106370 -0.197984 14.417372
-0.079811 -0.198277 14.438704
-0.053094 -0.198278 14.438766
-0.026390 -0.198373 14.445680
0.000339 -0.198372 14.445642
0.027069 -0.198371 14.445555
0.053797 -0.198369 14.445417
0.080525 -0.198366 14.445230
0.107252 -0.198363 14.444991
0.133978 -0.198359 14.444704
0.160779 -0.198450 14.451280
0.187552 -0.198485 14.453891
0.214562 -0.198731 14.471778
0.241391 -0.198773 14.474830
0.268495 -0.199010 14.492116
0.295298 -0.199002 14.491529
0.322098 -0.198993 14.490887
0.348895 -0.198984 14.490198
0.375561 -0.198907 14.484585
0.401883 -0.198670 14.467309
0.428628 -0.198658 14.466471
0.455131 -0.198543 14.458083
0.481162 -0.198245 14.436412
0.507840 -0.198232 14.435437
0.534512 -0.198218 14.434394
0.561178 -0.198203 14.433313
0.587839 -0.198187 14.432178
0.615095 -0.198365 14.445148
0.642393 -0.198541 14.457965
0.669479 -0.198640 14.465165
0.694244 -0.198069 14.423598
0.724107 -0.198942 14.487110
0.353245 -0.093586 6.815033
0.342551 -0.087625 6.380932
0.349547 -0.086435 6.294305
0.360404 -0.086246 6.280545
0.371296 -0.086077 6.268234
0.381595 -0.085785 6.246954
0.392086 -0.085552 6.229985
0.402772 -0.085374 6.216994
0.413105 -0.085133 6.199430
0.423687 -0.084954 6.186448
0.434391 -0.084809 6.175885
0.445038 -0.084661 6.165067
0.455484 -0.084482 6.152080
0.465884 -0.084304 6.139126
0.476506 -0.084174 6.129639
0.486821 -0.083997 6.116737
0.497092 -0.083820 6.103872
0.507505 -0.083675 6.093300
0.518182 -0.083579 6.086278
0.528319 -0.083401 6.073341
0.538934 -0.083305 6.066333
0.549520 -0.083208 6.059289
0.560451 -0.083166 6.056254
0.571556 -0.083152 6.055190
0.582212 -0.083074 6.049493
0.593167 -0.083040 6.047055
0.604244 -0.083025 6.045932
0.615314 -0.083009 6.044789
0.626836 -0.083054 6.048039
0.638055 -0.083057 6.048307
0.649118 -0.083041 6.047103
0.660781 -0.083100 6.051442
0.671873 -0.083087 6.050501
0.683769 -0.083173 6.056700
0.697386 -0.083461 6.077703
0.713935 -0.084086 6.123187
1.104532 -0.128057 9.325224
1.658668 -0.189344 13.788222
0.694704 -0.078102 5.687471
0.649289 -0.071907 5.236344
0.658024 -0.071803 5.228761
1.705162 -0.183370 13.353151
1.889828 -0.200326 14.587891
1.892961 -0.197832 14.406308
1.926770 -0.198569 14.459983
1.959814 -0.199208 14.506528
1.983229 -0.198865 14.481506
2.005592 -0.198426 14.449568
2.030845 -0.198281 14.439017
2.061049 -0.198617 14.463487
2.088329 -0.198666 14.467073
2.117565 -0.198898 14.483944
2.143748 -0.198841 14.479775
2.173150 -0.199080 14.497182
2.200413 -0.199120 14.500071
2.226715 -0.199072 14.496632
2.257206 -0.199396 14.520223
2.286916 -0.199644 14.538294
2.314085 -0.199668 14.539976
2.341909 -0.199746 14.545690
2.371660 -0.199985 14.563111
2.402026 -0.200270 14.583871
2.428276 -0.200210 14.579456
2.456368 -0.200301 14.586074
2.485514 -0.200475 14.598742
2.512543 -0.200476 14.598835
2.541695 -0.200645 14.611133
2.567900 -0.200580 14.606410
2.595332 -0.200611 14.608692
2.621513 -0.200546 14.603951
2.647667 -0.200480 14.599167
2.673755 -0.200411 14.594111
2.699857 -0.200344 14.589241
2.729940 -0.200571 14.605759
2.756460 -0.200534 14.603081
2.783419 -0.200530 14.602757
2.809466 -0.200460 14.597702
2.835445 -0.200387 14.592390
2.861438 -0.200317 14.587254
2.887404 -0.200246 14.582074
2.913315 -0.200172 14.576714
2.939224 -0.200100 14.571445
2.969483 -0.200322 14.587641
2.995374 -0.200248 14.582280
3.021196 -0.200172 14.576682
3.047709 -0.200141 14.574487
3.074268 -0.200115 14.572549
3.100055 -0.200039 14.567019
3.125814 -0.199962 14.561448
3.151542 -0.199885 14.555836
3.177203 -0.199805 14.550007
3.202872 -0.199727 14.544317
3.232694 -0.199907 14.557418
3.260434 -0.199956 14.561011
3.286062 -0.199876 14.555183
3.314546 -0.199970 14.562004
3.342116 -0.200007 14.564727
3.368680 -0.199985 14.563058
3.394852 -0.199939 14.559738
3.420314 -0.199853 14.553448
3.445803 -0.199769 14.547369
3.471260 -0.199685 14.541249
3.496685 -0.199600 14.535092
3.522048 -0.199514 14.528770
3.547409 -0.199428 14.522540
3.579650 -0.199728 14.544353
3.605041 -0.199643 14.538219
3.630303 -0.199553 14.531662
3.661033 -0.199763 14.546924
3.686260 -0.199671 14.540258
3.712778 -0.199651 14.538744
3.738507 -0.199588 14.534188
3.763587 -0.199492 14.527188
3.788817 -0.199405 14.520861
3.813867 -0.199310 14.513942
3.838838 -0.199212 14.506820
3.864009 -0.199126 14.500547
3.895490 -0.199364 14.517875
3.921665 -0.199329 14.515329
3.946540 -0.199229 14.508039
3.977467 -0.199434 14.522942
4.004241 -0.199429 14.522586
4.029053 -0.199327 14.515163
4.061656 -0.199609 14.535723
4.092829 -0.199818 14.550931
4.119837 -0.199822 14.551226
4.152530 -0.200100 14.571467
4.183855 -0.200309 14.586678
-4.295912 -0.167717 14.157681
-4.269336 -0.167703 14.156423
-4.245438 -0.167793 14.164086
-4.221491 -0.167883 14.171676
-4.197123 -0.167958 14.177941
-4.170517 -0.167943 14.176678
-4.140816 -0.167802 14.164810
-4.116776 -0.167890 14.172278
-4.092670 -0.167977 14.179615
-4.062657 -0.167821 14.166450
-4.038504 -0.167907 14.173679
-4.013806 -0.167971 14.179079
-3.987692 -0.167976 14.179514
-3.963224 -0.168051 14.185845
-3.938972 -0.168136 14.193039
-3.914218 -0.168201 14.198508
-3.887935 -0.168201 14.198470
-3.863587 -0.168284 14.205544
-3.838966 -0.168357 14.211705
-3.813269 -0.168384 14.213941
-3.784586 -0.168278 14.204999
-3.760131 -0.168360 14.211912
-3.735577 -0.168438 14.218544
-3.710889 -0.168512 14.224762
-3.686328 -0.168593 14.231555
-3.656423 -0.168428 14.217664
-3.629789 -0.168413 14.216389
-3.605101 -0.168489 14.222768
-3.579604 -0.168527 14.226028
-3.548588 -0.168305 14.207239
-3.523818 -0.168377 14.213361
-3.497174 -0.168361 14.211962
-3.467460 -0.168195 14.197973
-3.442681 -0.168268 14.204126
-3.413881 -0.168144 14.193660
-3.386329 -0.168080 14.188260
-3.361465 -0.168149 14.194129
-3.331108 -0.167943 14.176706
-3.305231 -0.167961 14.178230
-3.279421 -0.167983 14.180067
-3.251326 -0.167887 14.171970
-3.224156 -0.167837 14.167811
-3.199207 -0.167904 14.173422
-3.168073 -0.167644 14.151496
-3.143112 -0.167710 14.157012
-3.117134 -0.167721 14.158000
-3.091417 -0.167747 14.160196
-3.066384 -0.167811 14.165592
-3.038768 -0.167734 14.159051
-3.012034 -0.167704 14.156533
-2.986978 -0.167768 14.161932
-2.961866 -0.167830 14.167156
-2.936725 -0.167891 14.172338
-2.911604 -0.167955 14.177708
-2.882394 -0.167781 14.163082
-2.856100 -0.167776 14.162650
-2.830425 -0.167808 14.165304
-2.805197 -0.167867 14.170271
-2.779944 -0.167925 14.175198
-2.754710 -0.167986 14.180321
-2.729403 -0.168043 14.185165
-2.704072 -0.168100 14.189970
-2.677213 -0.168062 14.186781
-2.648938 -0.167934 14.175946
-2.622806 -0.167940 14.176476
-2.597467 -0.167998 14.181348
-2.572057 -0.168052 14.185929
-2.541881 -0.167793 14.164047
-2.516245 -0.167831 14.167270
-2.489424 -0.167790 14.163818
-2.460551 -0.167609 14.148495
-2.432103 -0.167452 14.135306
-2.405007 -0.167387 14.129782
-2.379578 -0.167437 14.134037
-2.352903 -0.167400 14.130899
-2.327351 -0.167443 14.134515
-2.298815 -0.167270 14.119879
-2.273195 -0.167307 14.123029
-2.247745 -0.167358 14.127316
-2.222231 -0.167405 14.131303
-2.196686 -0.167451 14.135182
-2.168119 -0.167265 14.119474
-2.142577 -0.167310 14.123323
-2.116966 -0.167352 14.126807
-2.090258 -0.167306 14.122965
-2.064702 -0.167353 14.126909
-2.039092 -0.167396 14.130575
-2.014594 -0.167534 14.142150
-1.989216 -0.167600 14.147766
-1.965981 -0.167851 14.168981
-1.940243 -0.167893 14.172480
-1.914887 -0.167969 14.178907
-1.891529 -0.168225 14.200513
-1.866580 -0.168345 14.210617
-1.840720 -0.168384 14.213974
-1.814838 -0.168423 14.217252
-1.788948 -0.168462 14.220568
-1.763030 -0.168500 14.223751
-1.736875 -0.168516 14.225095
-1.710195 -0.168481 14.222113
-1.683646 -0.168457 14.220144
-1.655959 -0.168318 14.208350
-1.630018 -0.168354 14.211395
-1.606285 -0.168623 14.234109
-1.578065 -0.168422 14.217152
-1.552758 -0.168530 14.226308
-1.528186 -0.168724 14.242637
-1.502119 -0.168756 14.245356
-1.476040 -0.168788 14.248058
-1.449950 -0.168820 14.250741
-1.423089 -0.168762 14.245816
-1.395770 -0.168646 14.236039
-1.369672 -0.168676 14.238571
-1.343556 -0.168705 14.241004
-1.316644 -0.168633 14.234941
-1.289493 -0.168527 14.225989
-1.264171 -0.168660 14.237258
-1.238964 -0.168815 14.250342
-1.212789 -0.168842 14.252611
-1.186596 -0.168868 14.254761
-1.160391 -0.168892 14.256863
-1.133366 -0.168796 14.248756
-1.106410 -0.168706 14.241151
-1.080207 -0.168729 14.243107
-1.053996 -0.168752 14.245049
-1.027774 -0.168775 14.246937
-1.001540 -0.168796 14.248749
-0.975074 -0.168779 14.247274
-0.949045 -0.168838 14.252286
-0.923573 -0.169003 14.266179
-0.897759 -0.169113 14.275459
-0.871442 -0.169132 14.277050
-0.845115 -0.169150 14.278584
-0.818781 -0.169168 14.280087
-0.792438 -0.169185 14.281532
-0.765350 -0.169039 14.269196
-0.737994 -0.168820 14.250781
-0.710862 -0.168639 14.235502
-0.684310 -0.168587 14.231113
-0.658033 -0.168602 14.232309
-0.631749 -0.168615 14.233448
-0.605459 -0.168628 14.234550
-0.579342 -0.168693 14.240001
-0.551782 -0.168323 14.208813
-0.526265 -0.168571 14.229757
-0.501598 -0.169132 14.277083
-0.478166 -0.170195 14.366776
-0.372027 -0.140212 11.835796
-0.206677 -0.082766 6.986578
-0.360553 -0.154021 13.001483
-0.369889 -0.169305 14.291721
-0.345283 -0.170212 14.368243
-0.318287 -0.169993 14.349753
-0.290345 -0.169183 14.281404
-0.263272 -0.168768 14.246328
-0.236575 -0.168528 14.226094
-0.210121 -0.168424 14.217298
-0.183818 -0.168427 14.217607
-0.157600 -0.168523 14.225669
-0.131464 -0.168762 14.245870
-0.105106 -0.168764 14.246032
-0.078856 -0.169001 14.266000
-0.052459 -0.169001 14.266061
-0.026077 -0.169096 14.274069
0.000335 -0.169096 14.274033
0.026747 -0.169095 14.273946
0.053158 -0.169093 14.273810
0.079569 -0.169091 14.273624
0.105978 -0.169088 14.273390
0.132386 -0.169085 14.273105
0.158793 -0.169081 14.272772
0.185338 -0.169204 14.283195
0.212013 -0.169402 14.299857
0.238465 -0.169396 14.299376
0.264914 -0.169390 14.298843
0.291360 -0.169383 14.298263
0.317803 -0.169375 14.297629
0.344242 -0.169367 14.296950
0.370677 -0.169359 14.296220
0.397109 -0.169349 14.295442
0.422886 -0.169080 14.272701
0.449080 -0.168999 14.265842
0.475446 -0.168988 14.264912
0.501807 -0.168976 14.263947
0.528162 -0.168964 14.262917
0.554414 -0.168922 14.259328
0.580855 -0.168938 14.260727
0.607192 -0.168924 14.259547
0.633523 -0.168910 14.258333
0.660422 -0.169042 14.269469
0.687106 -0.169111 14.275304
0.715228 -0.169516 14.309478
0.493175 -0.112714 9.514652
0.343627 -0.075828 6.400973
0.350092 -0.074681 6.304124
0.360255 -0.074371 6.277942
0.371466 -0.074290 6.271107
0.382104 -0.074103 6.255298
0.392533 -0.073887 6.237087
0.403172 -0.073722 6.223166
0.413474 -0.073506 6.204963
0.424006 -0.073342 6.191103
0.434614 -0.073199 6.179048
0.445112 -0.073046 6.166102
0.455794 -0.072930 6.156274
0.466206 -0.072777 6.143366
0.476710 -0.072645 6.132262
0.486829 -0.072462 6.116833
0.497099 -0.072310 6.103968
0.507513 -0.072185 6.093396
0.517684 -0.072031 6.080432
0.528327 -0.071948 6.073436
0.538760 -0.071841 6.064373
0.549528 -0.071782 6.059385
0.560459 -0.071746 6.056349
0.571454 -0.071719 6.054108
0.582094 -0.071650 6.048265
0.593176 -0.071637 6.047150
0.604083 -0.071603 6.044325
0.615279 -0.071605 6.044442
0.626385 -0.071596 6.043681
0.637443 -0.071582 6.042498
0.648945 -0.071617 6.045496
0.660179 -0.071623 6.045933
0.671847 -0.071674 6.050261
0.684939 -0.071873 6.067067
0.697258 -0.071986 6.076588
0.712184 -0.072360 6.108169
1.117445 -0.111762 9.434244
1.829168 -0.180131 15.205560
1.414463 -0.137182 11.580070
0.712079 -0.068031 5.742726
0.657635 -0.061905 5.225672
0.689881 -0.064000 5.402467
1.859426 -0.170034 14.353213
1.906541 -0.171887 14.509656
1.902667 -0.169156 14.279095
1.935133 -0.169686 14.323836
1.963722 -0.169866 14.339062
1.985804 -0.169486 14.307001
2.011758 -0.169443 14.303308
2.037735 -0.169402 14.299883
2.066479 -0.169590 14.315706
2.092408 -0.169544 14.311875
2.118280 -0.169495 14.307755
2.144363 -0.169464 14.305143
2.173149 -0.169645 14.320411
2.200166 -0.169685 14.323790
2.230390 -0.169969 14.347721
2.256655 -0.169947 14.345918
2.286593 -0.170200 14.367239
2.312500 -0.170150 14.363029
2.342955 -0.170432 14.386847
2.372161 -0.170618 14.402541
2.399428 -0.170662 14.406251
2.425343 -0.170610 14.401846
2.455986 -0.170888 14.425307
2.481903 -0.170835 14.420808
2.507796 -0.170781 14.416265
2.533652 -0.170726 14.411605
2.563063 -0.170909 14.427054
2.588918 -0.170853 14.422371
2.614747 -0.170797 14.417645
2.640940 -0.170766 14.415000
2.667783 -0.170777 14.415918
2.693531 -0.170718 14.410961
2.719271 -0.170660 14.406060
2.744985 -0.170601 14.401118
2.770672 -0.170542 14.396132
2.796292 -0.170480 14.390893
2.821927 -0.170420 14.385828
2.849709 -0.170490 14.391702
2.878704 -0.170630 14.403538
2.904305 -0.170568 14.398330
2.929879 -0.170506 14.393084
2.955425 -0.170444 14.387795
2.980902 -0.170378 14.382273
3.008343 -0.170425 14.386236
3.036043 -0.170486 14.391357
3.061510 -0.170421 14.385897
3.086948 -0.170356 14.380394
3.113256 -0.170339 14.379004
3.139456 -0.170317 14.377147
3.164821 -0.170251 14.371524
3.190156 -0.170184 14.365863
3.217217 -0.170209 14.368004
3.247022 -0.170378 14.382262
3.272315 -0.170309 14.376465
3.297541 -0.170238 14.370474
3.327405 -0.170406 14.384624
3.353821 -0.170396 14.383765
3.379679 -0.170358 14.380546
3.404865 -0.170286 14.374537
3.430020 -0.170215 14.368493
3.455143 -0.170143 14.362408
3.480204 -0.170069 14.356159
3.505264 -0.169996 14.350003
3.531637 -0.169987 14.349275
3.560863 -0.170115 14.360063
3.587173 -0.170103 14.359017
3.612204 -0.170030 14.352904
3.637094 -0.169952 14.346328
3.665868 -0.170056 14.355054
3.692023 -0.170037 14.353470
3.718463 -0.170031 14.353012
3.743803 -0.169976 14.348342
3.768555 -0.169895 14.341504
3.793230 -0.169812 14.334467
3.818102 -0.169738 14.328270
3.842705 -0.169654 14.321155
3.867512 -0.169580 14.314890
3.898820 -0.169790 14.332610
3.924417 -0.169750 14.329240
3.954452 -0.169901 14.342010
3.981024 -0.169903 14.342134
4.005919 -0.169833 14.336253
4.038241 -0.170077 14.356855
4.068610 -0.170236 14.370292
4.095362 -0.170243 14.370862
4.128109 -0.170497 14.392323
-4.250769 -0.139535 14.008909
-4.218640 -0.139330 13.988324
-4.197686 -0.139494 14.004768
-4.171321 -0.139479 14.003256
-4.147367 -0.139545 14.009864
-4.123640 -0.139619 14.017330
-4.099605 -0.139684 14.023837
-4.073186 -0.139668 14.022217
-4.044031 -0.139557 14.011101
-4.019968 -0.139622 14.017592
-3.995398 -0.139670 14.022394
-3.966746 -0.139574 14.012834
-3.940302 -0.139556 14.011002
-3.916125 -0.139619 14.017259
-3.892161 -0.139689 14.024367
-3.868114 -0.139758 14.031270
-3.841413 -0.139731 14.028575
-3.817357 -0.139801 14.035565
-3.788064 -0.139678 14.023266
-3.763968 -0.139747 14.030170
-3.739610 -0.139807 14.036186
-3.715445 -0.139875 14.043015
-3.691183 -0.139940 14.049569
-3.666789 -0.140002 14.055715
-3.642520 -0.140068 14.062427
-3.613268 -0.139943 14.049860
-3.586653 -0.139919 14.047441
-3.562258 -0.139982 14.053743
-3.535491 -0.139952 14.050714
-3.506417 -0.139829 14.038400
-3.481941 -0.139889 14.044449
-3.454857 -0.139845 14.039993
-3.426253 -0.139738 14.029244
-3.401768 -0.139799 14.035324
-3.373151 -0.139689 14.024320
-3.346086 -0.139642 14.019649
-3.319548 -0.139617 14.017128
-3.290534 -0.139487 14.004032
-3.264948 -0.139501 14.005433
-3.237176 -0.139421 13.997400
-3.210464 -0.139386 13.993861
-3.185841 -0.139441 13.999443
-3.155978 -0.139266 13.981906
-3.130424 -0.139281 13.983321
-3.104656 -0.139285 13.983799
-3.079087 -0.139299 13.985189
-3.050427 -0.139172 13.972442
-3.025726 -0.139225 13.977768
-3.000996 -0.139278 13.983052
-2.976239 -0.139330 13.988299
-2.951481 -0.139383 13.993634
-2.924213 -0.139318 13.987059
-2.896164 -0.139214 13.976592
-2.871390 -0.139266 13.981888
-2.846543 -0.139316 13.986921
-2.821669 -0.139366 13.991915
-2.796789 -0.139416 13.996967
-2.771861 -0.139465 14.001874
-2.746907 -0.139514 14.006742
-2.720225 -0.139475 14.002803
-2.695235 -0.139522 14.007586
-2.670220 -0.139569 14.012329
-2.642484 -0.139474 14.002749
-2.616696 -0.139481 14.003398
-2.591637 -0.139526 14.008006
-2.566599 -0.139574 14.012821
-2.538165 -0.139437 13.999003
-2.511450 -0.139392 13.994474
-2.486343 -0.139436 13.998911
-2.456850 -0.139232 13.978481
-2.431311 -0.139251 13.980359
-2.403377 -0.139131 13.968355
-2.376427 -0.139067 13.961867
-2.351300 -0.139109 13.966073
-2.326151 -0.139150 13.970236
-2.300983 -0.139191 13.974373
-2.275789 -0.139232 13.978447
-2.249177 -0.139186 13.973804
-2.221097 -0.139047 13.959832
-2.195823 -0.139082 13.963371
-2.170591 -0.139121 13.967267
-2.145339 -0.139159 13.971120
-2.120065 -0.139197 13.974929
-2.094660 -0.139227 13.977951
-2.066748 -0.139089 13.964119
-2.041480 -0.139128 13.968018
-2.016157 -0.139164 13.971643
-1.993427 -0.139382 13.993558
-1.968032 -0.139418 13.997103
-1.942618 -0.139453 14.000604
-1.917186 -0.139487 14.004060
-1.891760 -0.139523 14.007665
-1.868736 -0.139739 14.029400
-1.844398 -0.139862 14.041744
-1.818846 -0.139896 14.045063
-1.793271 -0.139928 14.048301
-1.767689 -0.139960 14.051578
-1.742079 -0.139992 14.054723
-1.716203 -0.140002 14.055787
-1.689994 -0.139986 14.054121
-1.664088 -0.139994 14.054954
-1.637857 -0.139975 14.053026
-1.611236 -0.139921 14.047637
-1.587066 -0.140082 14.063798
-1.561357 -0.140110 14.066623
-1.534266 -0.140013 14.056884
-1.509902 -0.140166 14.072226
-1.484147 -0.140193 14.074911
-1.457705 -0.140155 14.071072
-1.431411 -0.140129 14.068535
-1.406106 -0.140202 14.075806
-1.379184 -0.140113 14.066867
-1.353396 -0.140138 14.069366
-1.327590 -0.140162 14.071772
-1.301773 -0.140185 14.074163
-1.274275 -0.140025 14.058096
-1.250099 -0.140231 14.078782
-1.224241 -0.140253 14.080999
-1.198377 -0.140276 14.083241
-1.172495 -0.140297 14.085365
-1.146602 -0.140318 14.087442
-1.120702 -0.140339 14.089539
-1.093352 -0.140175 14.073079
-1.067143 -0.140152 14.070852
-1.041557 -0.140213 14.076932
-1.015275 -0.140180 14.073674
-0.989083 -0.140159 14.071529
-0.963167 -0.140177 14.073305
-0.937241 -0.140194 14.075023
-0.911304 -0.140210 14.076670
-0.885360 -0.140227 14.078295
-0.859406 -0.140242 14.079865
-0.833443 -0.140257 14.081379
-0.807472 -0.140272 14.082858
-0.781493 -0.140286 14.084285
-0.755506 -0.140300 14.085652
-0.729182 -0.140250 14.080617
-0.702136 -0.140052 14.060764
-0.676178 -0.140064 14.062000
-0.650213 -0.140076 14.063181
-0.624242 -0.140087 14.064306
-0.597097 -0.139825 14.037951
-0.571164 -0.139835 14.038986
-0.544948 -0.139774 14.032831
-0.518947 -0.139764 14.031881
-0.492895 -0.139739 14.029374
-0.469537 -0.140518 14.107523
-0.445899 -0.141299 14.185981
-0.295244 -0.099411 9.980520
-0.348945 -0.125331 12.582879
-0.362581 -0.139540 14.009365
-0.341537 -0.141562 14.212352
-0.314824 -0.141375 14.193622
-0.287493 -0.140852 14.141121
-0.260627 -0.140475 14.103225
-0.234070 -0.140198 14.075459
-0.207758 -0.140018 14.057392
-0.181634 -0.139931 14.048653
-0.155742 -0.140024 14.057954
-0.129902 -0.140209 14.076581
-0.103857 -0.140211 14.076740
-0.077812 -0.140215 14.077140
-0.051832 -0.140399 14.095626
-0.025751 -0.140400 14.095752
0.000331 -0.140487 14.104409
0.026429 -0.140486 14.104324
0.052527 -0.140484 14.104190
0.078623 -0.140483 14.104006
0.104712 -0.140471 14.102840
0.130739 -0.140398 14.095480
0.156906 -0.140474 14.103165
0.182997 -0.140470 14.102785
0.209262 -0.140585 14.114267
0.235631 -0.140736 14.129452
0.261766 -0.140731 14.128925
0.287898 -0.140725 14.128352
0.314026 -0.140719 14.127725
0.340151 -0.140712 14.127054
0.366272 -0.140705 14.126333
0.392390 -0.140697 14.125565
0.417887 -0.140482 14.103963
0.443743 -0.140406 14.096317
0.469796 -0.140397 14.095397
0.495843 -0.140387 14.094443
0.521784 -0.140350 14.090681
0.547570 -0.140277 14.083316
0.573584 -0.140265 14.082209
0.599723 -0.140285 14.084127
0.625853 -0.140300 14.085700
0.651512 -0.140213 14.076958
0.677239 -0.140147 14.070310
0.707302 -0.140950 14.150896
0.584793 -0.112376 11.282209
0.345462 -0.064097 6.435154
0.351480 -0.063041 6.329103
0.360728 -0.062613 6.286180
0.371724 -0.062506 6.275451
0.382606 -0.062388 6.263508
0.392990 -0.062197 6.244354
0.403441 -0.062027 6.227325
0.413891 -0.061867 6.211228
0.424425 -0.061727 6.197226
0.434979 -0.061598 6.184240
0.445485 -0.061469 6.171262
0.456007 -0.061348 6.159150
0.466352 -0.061210 6.145295
0.476716 -0.061081 6.132336
0.487029 -0.060952 6.119353
0.497169 -0.060807 6.104823
0.507519 -0.060694 6.093469
0.517858 -0.060584 6.082469
0.528333 -0.060495 6.073509
0.538766 -0.060405 6.064445
0.549476 -0.060349 6.058803
0.560343 -0.060312 6.055096
0.571014 -0.060255 6.049447
0.581969 -0.060231 6.046965
0.592714 -0.060186 6.042443
0.603670 -0.060163 6.040197
0.614731 -0.060152 6.039055
0.626089 -0.060170 6.040828
0.637450 -0.060187 6.042571
0.648502 -0.060175 6.041367
0.660187 -0.060221 6.046005
0.671279 -0.060213 6.045146
0.685248 -0.060458 6.069804
0.697939 -0.060585 6.082523
0.710963 -0.060736 6.097698
1.288192 -0.108328 10.875807
1.700458 -0.140797 14.135617
1.721490 -0.140380 14.093665
1.776656 -0.142716 14.328254
0.721526 -0.057107 5.733355
0.675898 -0.052720 5.292964
0.893396 -0.068690 6.896269
1.902739 -0.144235 14.480722
1.886981 -0.141054 14.161374
1.903694 -0.140354 14.091125
1.941617 -0.141216 14.177654
1.968769 -0.141282 14.184268
1.990620 -0.140971 14.153024
2.016281 -0.140934 14.149326
2.041922 -0.140897 14.145585
2.067543 -0.140859 14.141799
2.093253 -0.140828 14.138712
2.121465 -0.140965 14.152387
2.147161 -0.140932 14.149156
2.174020 -0.140976 14.153571
2.200028 -0.140965 14.152408
2.229478 -0.141171 14.173151
2.257968 -0.141313 14.187383
2.285019 -0.141363 14.192345
2.312546 -0.141440 14.200124
2.340708 -0.141554 14.211577
2.369391 -0.141697 14.225904
2.395274 -0.141671 14.223297
2.422064 -0.141698 14.226069
2.447624 -0.141654 14.221632
2.475491 -0.141743 14.230556
2.503543 -0.141841 14.240342
2.529079 -0.141795 14.235765
2.554591 -0.141749 14.231143
2.580078 -0.141703 14.226480
2.605499 -0.141653 14.221553
2.634386 -0.141792 14.235450
2.659811 -0.141743 14.230556
2.685229 -0.141695 14.225718
2.710621 -0.141646 14.220835
2.735987 -0.141597 14.215913
2.761936 -0.141579 14.214080
2.788392 -0.141587 14.214870
2.813695 -0.141537 14.209824
2.838943 -0.141485 14.204597
2.864191 -0.141433 14.199463
2.889412 -0.141382 14.194289
2.914605 -0.141330 14.189074
2.945478 -0.141552 14.211355
2.970665 -0.141499 14.206052
2.995788 -0.141444 14.200539
3.020917 -0.141390 14.195148
3.048027 -0.141430 14.199080
3.075116 -0.141467 14.202850
3.100154 -0.141410 14.197162
3.126287 -0.141404 14.196543
3.152244 -0.141390 14.195140
3.177201 -0.141332 14.189294
3.203366 -0.141328 14.188892
3.233426 -0.141495 14.205615
3.258353 -0.141436 14.199695
3.283285 -0.141378 14.193892
3.312525 -0.141505 14.206656
3.337370 -0.141444 14.200518
3.364402 -0.141476 14.203712
3.389258 -0.141416 14.197738
3.414082 -0.141356 14.191727
3.438845 -0.141295 14.185553
3.463608 -0.141234 14.179470
3.488266 -0.141170 14.173058
3.515271 -0.141202 14.176200
3.544543 -0.141323 14.188375
3.569276 -0.141263 14.182334
3.593871 -0.141198 14.175836
3.622070 -0.141275 14.183547
3.644069 -0.141110 14.167039
3.672316 -0.141189 14.174889
3.696934 -0.141127 14.168715
3.723769 -0.141151 14.171068
3.748151 -0.141081 14.164115
3.772727 -0.141020 14.157991
3.797038 -0.140950 14.150960
3.821550 -0.140889 14.144770
3.845789 -0.140818 14.137664
3.877046 -0.141003 14.156274
3.902017 -0.140959 14.151840
3.930974 -0.141058 14.161821
3.958160 -0.141093 14.165338
3.989884 -0.141289 14.184938
4.014662 -0.141237 14.179748
4.043976 -0.141345 14.190545
4.078975 -0.141648 14.221022
-4.200246 -0.111771 13.842403
-4.171475 -0.111687 13.831934
-4.153219 -0.111884 13.856414
-4.124727 -0.111807 13.846838
-4.098064 -0.111779 13.843317
-4.074619 -0.111838 13.850694
-4.050870 -0.111890 13.857123
-4.027352 -0.111949 13.864430
-3.995956 -0.111788 13.844539
-3.972179 -0.111840 13.850954
-3.947944 -0.111880 13.855846
-3.919914 -0.111812 13.847396
-3.893460 -0.111788 13.844440
-3.869571 -0.111838 13.850625
-3.845892 -0.111894 13.857650
-3.821603 -0.111934 13.862555
-3.795434 -0.111919 13.860663
-3.767037 -0.111837 13.850553
-3.743032 -0.111886 13.856562
-3.719223 -0.111941 13.863384
-3.695155 -0.111989 13.869328
-3.671277 -0.112043 13.876077
-3.647303 -0.112095 13.882554
-3.623200 -0.112144 13.888626
-3.597881 -0.112156 13.890091
-3.568017 -0.112026 13.873907
-3.544016 -0.112078 13.880449
-3.519911 -0.112129 13.886677
-3.491660 -0.112047 13.876522
-3.464734 -0.112006 13.871516
-3.438953 -0.112003 13.871058
-3.409725 -0.111886 13.856583
-3.385523 -0.111933 13.862471
-3.360316 -0.111948 13.864298
-3.332895 -0.111889 13.856951
-3.306309 -0.111857 13.852989
-3.278009 -0.111766 13.841724
-3.251418 -0.111732 13.837558
-3.226009 -0.111739 13.838396
-3.196558 -0.111605 13.821773
-3.172299 -0.111651 13.827508
-3.145978 -0.111625 13.824277
-3.117514 -0.111522 13.811500
-3.091998 -0.111523 13.811678
-3.066615 -0.111529 13.812457
-3.038500 -0.111436 13.800844
-3.014165 -0.111480 13.806344
-2.989757 -0.111523 13.811606
-2.965322 -0.111565 13.816829
-2.935940 -0.111420 13.798894
-2.910705 -0.111431 13.800305
-2.886234 -0.111472 13.805395
-2.861736 -0.111513 13.810446
-2.837256 -0.111555 13.815678
-2.812704 -0.111596 13.820652
-2.788127 -0.111635 13.825587
-2.762133 -0.111619 13.823527
-2.736925 -0.111634 13.825397
-2.712286 -0.111673 13.830203
-2.685223 -0.111612 13.822628
-2.659708 -0.111614 13.822947
-2.635023 -0.111652 13.827628
-2.610313 -0.111689 13.832269
-2.585590 -0.111727 13.836932
-2.560829 -0.111764 13.841488
-2.533552 -0.111690 13.832396
-2.506380 -0.111620 13.823692
-2.481595 -0.111656 13.828117
-2.456787 -0.111691 13.832500
-2.427617 -0.111527 13.812160
-2.402409 -0.111543 13.814167
-2.374982 -0.111456 13.803323
-2.348342 -0.111404 13.796868
-2.323350 -0.111429 13.800054
-2.298500 -0.111463 13.804167
-2.273630 -0.111496 13.808254
-2.248736 -0.111528 13.812280
-2.223819 -0.111560 13.816264
-2.198922 -0.111594 13.820459
-2.173963 -0.111626 13.824359
-2.144789 -0.111439 13.801233
-2.119836 -0.111470 13.805040
-2.094863 -0.111500 13.808805
-2.069870 -0.111530 13.812525
-2.044856 -0.111560 13.816203
-2.019855 -0.111591 13.820062
-1.994801 -0.111620 13.823648
-1.969730 -0.111649 13.827213
-1.944638 -0.111677 13.830715
-1.919526 -0.111705 13.834174
-1.894396 -0.111732 13.837590
-1.869595 -0.111780 13.843544
-1.846575 -0.111938 13.863023
-1.822474 -0.112033 13.874826
-1.797225 -0.112060 13.878106
-1.771954 -0.112085 13.881305
-1.746676 -0.112112 13.884543
-1.721370 -0.112137 13.887651
-1.696050 -0.112162 13.890738
-1.670720 -0.112187 13.893834
-1.645061 -0.112190 13.894257
-1.618289 -0.112116 13.885131
-1.592046 -0.112077 13.880330
-1.569209 -0.112281 13.905554
-1.543789 -0.112304 13.908345
-1.517262 -0.112245 13.901098
-1.492185 -0.112294 13.907107
-1.466383 -0.112288 13.906451
-1.440300 -0.112261 13.903064
-1.414353 -0.112243 13.900880
-1.389319 -0.112299 13.907769
-1.362789 -0.112234 13.899652
-1.337308 -0.112253 13.902122
-1.311808 -0.112273 13.904496
-1.285623 -0.112233 13.899559
-1.259231 -0.112173 13.892132
-1.234411 -0.112253 13.902096
-1.209688 -0.112346 13.913615
-1.184132 -0.112364 13.915832
-1.157861 -0.112313 13.909556
-1.131582 -0.112260 13.902913
-1.106022 -0.112277 13.904984
-1.080445 -0.112292 13.906940
-1.054857 -0.112308 13.908849
-1.029261 -0.112323 13.910746
-1.003242 -0.112292 13.906877
-0.977326 -0.112271 13.904258
-0.951718 -0.112285 13.906013
-0.926100 -0.112299 13.907710
-0.900471 -0.112312 13.909338
-0.874835 -0.112325 13.910944
-0.849190 -0.112337 13.912495
-0.823535 -0.112349 13.913989
-0.797874 -0.112361 13.915453
-0.772203 -0.112372 13.916862
-0.746525 -0.112383 13.918213
-0.720472 -0.112337 13.912430
-0.693790 -0.112185 13.893620
-0.668141 -0.112195 13.894843
-0.642484 -0.112204 13.896010
-0.615618 -0.111994 13.870005
-0.589999 -0.112003 13.871080
-0.563965 -0.111930 13.862045
-0.537831 -0.111829 13.849561
-0.511983 -0.111781 13.843581
-0.487003 -0.111927 13.861670
-0.463372 -0.112416 13.922278
-0.437767 -0.112456 13.927257
-0.381840 -0.104225 12.907841
-0.344176 -0.100213 12.410935
-0.359091 -0.112031 13.874517
-0.340988 -0.114574 14.189486
-0.312384 -0.113719 14.083622
-0.285401 -0.113352 14.038211
-0.258244 -0.112836 13.974282
-0.231749 -0.112526 13.935933
-0.205707 -0.112386 13.918595
-0.179826 -0.112307 13.908792
-0.154093 -0.112309 13.909045
-0.128607 -0.112529 13.936285
-0.102823 -0.112532 13.936602
-0.077036 -0.112533 13.936711
-0.051248 -0.112533 13.936771
-0.025460 -0.112533 13.936785
0.000327 -0.112533 13.936748
0.026115 -0.112532 13.936665
0.051902 -0.112531 13.936531
0.077689 -0.112530 13.936349
0.103466 -0.112520 13.935079
0.129175 -0.112454 13.926907
0.155041 -0.112523 13.935516
0.180821 -0.112520 13.935143
0.206750 -0.112598 13.944842
0.232545 -0.112595 13.944373
0.258337 -0.112590 13.943853
0.284475 -0.112724 13.960406
0.310293 -0.112719 13.959787
0.336108 -0.112714 13.959124
0.361918 -0.112708 13.958411
0.387725 -0.112702 13.957652
0.413021 -0.112557 13.939729
0.438702 -0.112528 13.936183
0.464211 -0.112461 13.927843
0.489949 -0.112454 13.926900
0.515682 -0.112445 13.925895
0.540807 -0.112312 13.909367
0.566023 -0.112209 13.896587
0.592415 -0.112337 13.912511
0.617837 -0.112279 13.905298
0.642787 -0.112143 13.888452
0.667832 -0.112033 13.874870
0.695349 -0.112331 13.911757
0.653335 -0.101776 12.604566
0.344254 -0.051779 6.412660
0.352805 -0.051297 6.352961
0.361680 -0.050892 6.302779
0.372211 -0.050738 6.283681
0.383298 -0.050667 6.274843
0.393778 -0.050521 6.256873
0.404115 -0.050367 6.237731
0.414585 -0.050237 6.221635
0.424998 -0.050107 6.205593
0.435407 -0.049984 6.190333
0.445924 -0.049879 6.177342
0.456391 -0.049774 6.164329
0.466650 -0.049652 6.149221
0.476793 -0.049524 6.133330
0.487033 -0.049411 6.119404
0.497302 -0.049307 6.106458
0.507524 -0.049202 6.093519
0.518012 -0.049128 6.084281
0.528337 -0.049041 6.073559
0.538642 -0.048956 6.063054
0.549227 -0.048900 6.056061
0.559786 -0.048844 6.049067
0.570570 -0.048809 6.044737
0.581389 -0.048778 6.040937
0.592134 -0.048742 6.036524
0.603086 -0.048725 6.034351
0.614414 -0.048738 6.035948
0.625786 -0.048753 6.037904
0.637401 -0.048787 6.042104
0.648691 -0.048796 6.043130
0.660192 -0.048819 6.046054
0.671898 -0.048857 6.050718
0.685923 -0.049059 6.075785
0.699999 -0.049259 6.100473
0.713637 -0.049421 6.120634
1.378707 -0.093988 11.639995
1.654806 -0.111075 13.756123
1.643094 -0.108618 13.451844
1.765971 -0.114998 14.242080
1.572325 -0.100883 12.493937
0.771983 -0.048814 6.045406
0.663813 -0.041375 5.124082
1.208938 -0.074291 9.200580
1.908316 -0.115640 14.321494
1.877617 -0.112221 13.898109
1.902211 -0.112155 13.889911
1.943895 -0.113085 14.005065
1.968381 -0.113003 13.994908
1.992313 -0.112891 13.981129
2.017649 -0.112862 13.977430
2.042965 -0.112831 13.973690
2.070767 -0.112937 13.986830
2.097594 -0.112988 13.993143
2.122894 -0.112957 13.989245
2.148176 -0.112925 13.985321
2.173600 -0.112902 13.982402
2.202976 -0.113082 14.004672
2.228556 -0.113065 14.002578
2.257856 -0.113235 14.023635
2.283811 -0.113235 14.023678
2.312883 -0.113388 14.042639
2.338159 -0.113354 14.038388
2.363965 -0.113346 14.037381
2.391889 -0.113438 14.048836
2.418528 -0.113468 14.052574
2.443760 -0.113433 14.048146
2.468956 -0.113396 14.043606
2.494139 -0.113359 14.039090
2.519298 -0.113323 14.034534
2.549407 -0.113507 14.057364
2.574526 -0.113468 14.052495
2.599661 -0.113430 14.047807
2.624751 -0.113391 14.042977
2.649834 -0.113352 14.038201
2.674892 -0.113313 14.033384
2.699923 -0.113274 14.028525
2.726113 -0.113284 14.029720
2.753247 -0.113332 14.035707
2.778231 -0.113292 14.030724
2.803162 -0.113250 14.025564
2.828944 -0.113243 14.024722
2.855064 -0.113250 14.025555
2.879958 -0.113209 14.020401
2.904785 -0.113165 14.015018
2.932290 -0.113226 14.022541
2.960175 -0.113300 14.031729
2.985006 -0.113257 14.026404
3.009808 -0.113214 14.021040
3.034582 -0.113170 14.015636
3.059290 -0.113125 14.010023
3.086055 -0.113156 14.013845
3.113763 -0.113220 14.021851
3.139432 -0.113210 14.020618
3.164108 -0.113165 14.015007
3.190123 -0.113168 14.015367
3.219619 -0.113293 14.030895
3.244255 -0.113247 14.025161
3.268861 -0.113200 14.019390
3.297424 -0.113290 14.030549
3.321997 -0.113243 14.024687
3.346539 -0.113195 14.018788
3.371051 -0.113148 14.012852
3.397965 -0.113180 14.016919
3.422433 -0.113132 14.010908
3.446799 -0.113081 14.004573
3.473084 -0.113093 14.006070
3.498112 -0.113064 14.002517
3.526846 -0.113155 14.013739
3.551148 -0.113103 14.007318
3.575365 -0.113049 14.000653
3.599761 -0.113002 13.994782
3.623909 -0.112947 13.988040
3.652684 -0.113037 13.999125
3.676835 -0.112983 13.992455
3.700908 -0.112927 13.985588
3.725176 -0.112879 13.979543
3.749180 -0.112823 13.972601
3.773382 -0.112773 13.966488
3.800072 -0.112798 13.969600
3.826713 -0.112822 13.972492
3.855631 -0.112911 13.983606
3.879521 -0.112854 13.976458
3.911088 -0.113019 13.996875
3.935121 -0.112965 13.990241
3.966936 -0.113134 14.011180
3.990784 -0.113075 14.003889
4.022667 -0.113243 14.024708
-4.158399 -0.084812 13.704491
-4.126932 -0.084687 13.684235
-4.103832 -0.084733 13.691643
-4.080683 -0.084778 13.698980
-4.052609 -0.084721 13.689770
-4.029424 -0.084766 13.697066
-4.002700 -0.084737 13.692345
-3.979461 -0.084782 13.699564
-3.955830 -0.084818 13.705514
-3.924945 -0.084699 13.686250
-3.901611 -0.084742 13.693235
-3.877433 -0.084768 13.697329
-3.850275 -0.084728 13.690883
-3.823557 -0.084697 13.685925
-3.800160 -0.084740 13.692865
-3.776681 -0.084782 13.699604
-3.752407 -0.084806 13.703531
-3.722243 -0.084697 13.685853
-3.698523 -0.084734 13.691791
-3.674997 -0.084775 13.698533
-3.651215 -0.084812 13.704404
-3.627621 -0.084853 13.711073
-3.603932 -0.084892 13.717473
-3.580115 -0.084930 13.723473
-3.555187 -0.084941 13.725266
-3.528442 -0.084908 13.720023
-3.501873 -0.084880 13.715395
-3.478055 -0.084918 13.721547
-3.449956 -0.084851 13.710781
-3.423534 -0.084825 13.706568
-3.398166 -0.084825 13.706544
-3.370840 -0.084775 13.698563
-3.345265 -0.084770 13.697628
-3.321359 -0.084806 13.703567
-3.293107 -0.084732 13.691528
-3.266993 -0.084712 13.688261
-3.241325 -0.084703 13.686825
-3.212755 -0.084617 13.673015
-3.187522 -0.084619 13.673303
-3.158548 -0.084521 13.657416
-3.134577 -0.084556 13.663082
-3.108701 -0.084540 13.660472
-3.080444 -0.084458 13.647265
-3.056429 -0.084492 13.652795
-3.027981 -0.084403 13.638444
-3.002369 -0.084393 13.636738
-2.978323 -0.084426 13.642172
-2.954206 -0.084459 13.647371
-2.930061 -0.084491 13.652534
-2.902566 -0.084426 13.642035
-2.876959 -0.084415 13.640307
-2.851913 -0.084421 13.641233
-2.827706 -0.084452 13.646225
-2.803518 -0.084484 13.651394
-2.779258 -0.084514 13.656310
-2.754973 -0.084544 13.661185
-2.729130 -0.084527 13.658357
-2.704156 -0.084536 13.659870
-2.679812 -0.084565 13.664618
-2.652448 -0.084499 13.653912
-2.628081 -0.084528 13.658578
-2.603690 -0.084557 13.663203
-2.579273 -0.084585 13.667789
-2.554844 -0.084613 13.672396
-2.530378 -0.084641 13.676897
-2.503066 -0.084574 13.665952
-2.476921 -0.084544 13.661214
-2.452086 -0.084560 13.663686
-2.427573 -0.084586 13.668017
-2.403043 -0.084613 13.672345
-2.373842 -0.084474 13.649903
-2.349307 -0.084500 13.654099
-2.322390 -0.084440 13.644393
-2.297580 -0.084456 13.646989
-2.273006 -0.084481 13.651057
-2.248412 -0.084506 13.655101
-2.223794 -0.084531 13.659081
-2.199154 -0.084555 13.663021
-2.172813 -0.084514 13.656362
-2.148112 -0.084537 13.659973
-2.123428 -0.084560 13.663783
-2.098724 -0.084583 13.667552
-2.074000 -0.084607 13.671279
-2.049255 -0.084629 13.674963
-2.024491 -0.084652 13.678605
-1.997452 -0.084579 13.666778
-1.971206 -0.084538 13.660136
-1.950113 -0.084719 13.689504
-1.925271 -0.084741 13.692972
-1.900409 -0.084762 13.696396
-1.875529 -0.084783 13.699778
-1.850656 -0.084805 13.703304
-1.825738 -0.084825 13.706595
-1.800803 -0.084845 13.709842
-1.775854 -0.084865 13.713080
-1.750884 -0.084885 13.716243
-1.725906 -0.084905 13.719441
-1.700902 -0.084924 13.722513
-1.675882 -0.084943 13.725563
-1.650853 -0.084961 13.728623
-1.625798 -0.084980 13.731560
-1.600728 -0.084998 13.734454
-1.575652 -0.085016 13.737399
-1.550549 -0.085033 13.740203
-1.525431 -0.085050 13.742962
-1.500308 -0.085068 13.745767
-1.475160 -0.085084 13.748435
-1.449998 -0.085100 13.751060
-1.423673 -0.085048 13.742563
-1.398508 -0.085064 13.745149
-1.373323 -0.085079 13.747636
-1.346584 -0.084997 13.734370
-1.321406 -0.085012 13.736812
-1.296210 -0.085027 13.739161
-1.271003 -0.085041 13.741494
-1.245785 -0.085055 13.743794
-1.220551 -0.085069 13.746005
-1.195304 -0.085082 13.748171
-1.170052 -0.085096 13.750360
-1.144781 -0.085109 13.752433
-1.119500 -0.085121 13.754460
-1.094212 -0.085134 13.756509
-1.067685 -0.085049 13.742707
-1.042400 -0.085060 13.744596
-1.017627 -0.085115 13.753504
-0.991802 -0.085083 13.748292
-0.965704 -0.085025 13.738924
-0.940401 -0.085036 13.740658
-0.915088 -0.085046 13.742334
-0.890484 -0.085125 13.755063
-0.865132 -0.085135 13.756654
-0.839336 -0.085100 13.751060
-0.813743 -0.085085 13.748540
-0.788386 -0.085094 13.749987
-0.763021 -0.085102 13.751378
-0.737648 -0.085111 13.752713
-0.711864 -0.085070 13.746201
-0.686326 -0.085058 13.744144
-0.660196 -0.084968 13.729621
-0.634845 -0.084975 13.730774
-0.608419 -0.084833 13.707816
-0.582983 -0.084822 13.706141
-0.557663 -0.084829 13.707150
-0.531299 -0.084669 13.681358
-0.506017 -0.084675 13.682272
-0.480731 -0.084680 13.683131
-0.453996 -0.084417 13.640595
-0.428345 -0.084336 13.627506
-0.387518 -0.081070 13.099763
-0.321022 -0.071640 11.575981
-0.346613 -0.082881 13.392392
-0.338471 -0.087165 14.084741
-0.309986 -0.086489 13.975528
-0.283243 -0.086220 13.932047
-0.256193 -0.085795 13.863304
-0.229644 -0.085461 13.809315
-0.203686 -0.085291 13.781857
-0.178179 -0.085288 13.781416
-0.152681 -0.085290 13.781668
-0.127182 -0.085291 13.781870
-0.101682 -0.085292 13.781990
-0.076181 -0.085293 13.782134
-0.050679 -0.085291 13.781879
-0.025158 -0.085224 13.771063
0.000323 -0.085224 13.771027
0.025805 -0.085223 13.770945
0.051285 -0.085223 13.770814
0.076765 -0.085221 13.770634
0.102235 -0.085213 13.769260
0.127721 -0.085218 13.770134
0.153197 -0.085216 13.769812
0.178671 -0.085214 13.769442
0.204308 -0.085280 13.780165
0.230062 -0.085375 13.795479
0.255579 -0.085372 13.794965
0.281093 -0.085369 13.794404
0.306604 -0.085365 13.793793
0.332111 -0.085361 13.793138
0.357615 -0.085356 13.792434
0.383115 -0.085352 13.791682
0.408610 -0.085347 13.790882
0.433970 -0.085316 13.785845
0.458691 -0.085169 13.762229
0.484123 -0.085164 13.761297
0.509550 -0.085158 13.760303
0.534971 -0.085151 13.759274
0.560386 -0.085144 13.758189
0.585795 -0.085137 13.757052
0.611199 -0.085130 13.755881
0.635353 -0.084956 13.727818
