ply
format ascii 1.0
comment generated by convert_depth_to_ply.py
element vertex 1677
property float x
property float y
property float z
end_header
-1.908997 -0.115565 8.422326
-1.894401 -0.115610 8.425549
-1.879811 -0.115655 8.428848
-1.865204 -0.115700 8.432123
-1.850579 -0.115744 8.435375
-1.836322 -0.115813 8.440371
-1.821258 -0.115831 8.441710
-1.807364 -0.115925 8.448542
-1.792667 -0.115968 8.451704
-1.777954 -0.116012 8.454843
-1.763223 -0.116054 8.457955
-1.751114 -0.116272 8.473807
-1.736781 -0.116344 8.479085
-1.723885 -0.116515 8.491535
-1.710047 -0.116625 8.499526
-1.695917 -0.116716 8.506200
-1.683578 -0.116934 8.522063
-1.669377 -0.117025 8.528707
-1.656141 -0.117186 8.540453
-1.642459 -0.117319 8.550100
-1.627649 -0.117372 8.554002
-1.615085 -0.117590 8.569895
-1.600531 -0.117666 8.575438
-1.585640 -0.117719 8.579267
-1.570546 -0.117757 8.582063
-1.555437 -0.117795 8.584834
-1.540307 -0.117832 8.587540
-1.525169 -0.117870 8.590262
-1.510018 -0.117907 8.592958
-1.494852 -0.117943 8.595630
-1.479647 -0.117978 8.598130
-1.464453 -0.118014 8.600749
-1.449244 -0.118049 8.603341
-1.435913 -0.118240 8.617249
-1.420947 -0.118299 8.621553
-1.405675 -0.118334 8.624070
-1.390387 -0.118368 8.626546
-1.375682 -0.118453 8.632741
-1.360364 -0.118486 8.635183
-1.345033 -0.118519 8.637598
-1.329666 -0.118550 8.639837
-1.314309 -0.118582 8.642199
-1.298940 -0.118614 8.644533
-1.283558 -0.118646 8.646841
-1.268164 -0.118677 8.649122
-1.252758 -0.118708 8.651377
-1.237340 -0.118739 8.653605
-1.221909 -0.118769 8.655804
-1.206467 -0.118799 8.657977
-1.191014 -0.118828 8.660124
-1.175023 -0.118804 8.658372
-1.159554 -0.118833 8.660465
-1.143894 -0.118843 8.661173
-1.126866 -0.118709 8.651400
-1.111385 -0.118736 8.653392
-1.095897 -0.118763 8.655380
-1.080396 -0.118790 8.657331
-1.064418 -0.118764 8.655454
-1.048903 -0.118790 8.657351
-1.033379 -0.118816 8.659222
-1.018284 -0.118893 8.664804
-1.002733 -0.118917 8.666618
-0.987508 -0.118982 8.671357
-0.973073 -0.119146 8.683305
-0.957575 -0.119183 8.685989
-0.942645 -0.119293 8.694012
-0.928157 -0.119464 8.706455
-0.914162 -0.119705 8.724030
-0.899263 -0.119835 8.733457
-0.884597 -0.120000 8.745513
-0.870425 -0.120240 8.762993
-0.855005 -0.120313 8.768330
-0.840474 -0.120516 8.783153
-0.824768 -0.120556 8.786036
-0.809609 -0.120679 8.794971
-0.794492 -0.120813 8.804733
-0.778936 -0.120884 8.809931
-0.763511 -0.120979 8.816864
-0.748253 -0.121105 8.826060
-0.732309 -0.121123 8.827388
-0.716357 -0.121141 8.828688
-0.700397 -0.121158 8.829939
-0.684726 -0.121227 8.834973
-0.668605 -0.121218 8.834313
-0.652479 -0.121208 8.833553
-0.636494 -0.121224 8.834707
-0.620501 -0.121239 8.835813
-0.604503 -0.121254 8.836890
-0.588500 -0.121268 8.837956
-0.572491 -0.121283 8.838994
-0.556475 -0.121296 8.839992
-0.540688 -0.121362 8.844782
-0.524656 -0.121375 8.845722
-0.509094 -0.121501 8.854927
-0.493325 -0.121585 8.860995
-0.477459 -0.121649 8.865672
-0.461835 -0.121781 8.875321
-0.445965 -0.121856 8.880798
-0.430034 -0.121919 8.885406
-0.414537 -0.122115 8.899679
-0.398552 -0.122178 8.904230
-0.382967 -0.122373 8.918474
-0.367336 -0.122571 8.932869
-0.351369 -0.122669 8.940049
-0.335552 -0.122832 8.951903
-0.319514 -0.122926 8.958788
-0.303626 -0.123092 8.970849
-0.287520 -0.123182 8.977448
-0.271642 -0.123388 8.992409
-0.255387 -0.123437 8.996027
-0.239418 -0.123641 9.010859
-0.223419 -0.123858 9.026682
-0.207058 -0.123893 9.029228
-0.190723 -0.123951 9.033460
-0.174222 -0.123902 9.029860
-0.158324 -0.124316 9.060057
-0.138734 -0.121590 8.861423
-0.111783 -0.110849 8.078612
-0.094288 -0.107651 7.845566
-0.078130 -0.105113 7.660594
-0.062890 -0.102975 7.504767
-0.048862 -0.102188 7.447423
-0.035175 -0.101783 7.417867
-0.021597 -0.101384 7.388791
-0.008147 -0.101261 7.379824
0.005262 -0.100985 7.359709
0.018627 -0.100863 7.350842
0.031943 -0.100688 7.338101
0.045244 -0.100584 7.330523
0.058507 -0.100463 7.321675
0.071753 -0.100362 7.314311
0.084994 -0.100287 7.308868
0.098260 -0.100257 7.306664
0.111471 -0.100186 7.301459
0.124748 -0.100182 7.301213
0.138038 -0.100189 7.301724
0.151561 -0.100349 7.313342
0.164913 -0.100379 7.315524
0.178381 -0.100469 7.322113
0.192012 -0.100633 7.334065
0.205776 -0.100840 7.349164
0.219721 -0.101106 7.368526
0.282343 -0.122452 8.924225
0.302751 -0.124164 9.049007
0.319084 -0.124115 9.045385
0.334895 -0.123877 9.028083
0.351440 -0.123920 9.031239
0.367684 -0.123859 9.026723
0.384072 -0.123848 9.025992
0.401067 -0.124027 9.038983
0.417472 -0.124016 9.038191
0.433873 -0.124005 9.037374
0.450270 -0.123993 9.036530
0.466662 -0.123981 9.035646
0.483050 -0.123969 9.034750
0.499432 -0.123956 9.033806
0.515900 -0.123964 9.034422
0.532411 -0.123982 9.035748
0.548784 -0.123968 9.034715
0.566012 -0.124142 9.047402
0.582401 -0.124128 9.046344
0.598782 -0.124112 9.045218
0.615157 -0.124096 9.044065
0.631798 -0.124134 9.046786
0.648663 -0.124212 9.052499
0.665544 -0.124290 9.058134
0.681924 -0.124272 9.056859
0.698298 -0.124254 9.055552
0.714835 -0.124265 9.056378
0.731339 -0.124271 9.056760
0.747379 -0.124198 9.051499
0.763724 -0.124179 9.050074
0.780194 -0.124180 9.050171
0.796389 -0.124139 9.047134
0.812712 -0.124118 9.045652
0.829027 -0.124097 9.044128
0.845331 -0.124076 9.042555
0.861874 -0.124089 9.043551
0.878293 -0.124085 9.043225
0.894582 -0.124063 9.041603
0.910860 -0.124040 9.039928
0.928538 -0.124205 9.051969
0.944821 -0.124181 9.050217
0.961094 -0.124156 9.048435
0.977680 -0.124173 9.049614
0.994047 -0.124161 9.048754
1.010298 -0.124135 9.046884
1.026539 -0.124109 9.044987
1.042769 -0.124083 9.043060
1.060608 -0.124245 9.054921
1.076844 -0.124218 9.052946
1.093067 -0.124191 9.050930
1.109280 -0.124163 9.048884
1.125483 -0.124134 9.046821
1.141674 -0.124105 9.044717
1.157853 -0.124076 9.042584
1.174021 -0.124047 9.040424
1.190195 -0.124018 9.038369
1.206340 -0.123988 9.036155
1.222473 -0.123957 9.033912
1.238594 -0.123926 9.031641
1.254703 -0.123894 9.029341
1.270800 -0.123863 9.027018
1.286866 -0.123828 9.024531
1.302956 -0.123797 9.022274
1.319014 -0.123764 9.019861
1.335100 -0.123735 9.017690
1.351700 -0.123753 9.019007
1.367727 -0.123718 9.016510
1.383879 -0.123696 9.014886
1.401871 -0.123837 9.025151
1.417940 -0.123807 9.022936
1.434726 -0.123839 9.025287
1.452699 -0.123972 9.034965
1.469334 -0.123989 9.036198
1.487589 -0.124140 9.047253
1.503717 -0.124113 9.045274
1.520646 -0.124152 9.048105
1.538582 -0.124271 9.056805
1.555244 -0.124286 9.057899
1.573618 -0.124436 9.068837
1.590304 -0.124451 9.069918
1.608733 -0.124601 9.080816
1.624894 -0.124573 9.078825
1.642044 -0.124622 9.082339
1.659903 -0.124722 9.089668
1.676631 -0.124737 9.090718
1.695175 -0.124885 9.101502
1.711151 -0.124842 9.098420
1.727346 -0.124817 9.096552
1.743807 -0.124811 9.096105
1.760667 -0.124833 9.097728
1.778376 -0.124914 9.103664
1.794301 -0.124870 9.100448
1.810209 -0.124826 9.097204
1.826100 -0.124781 9.093935
1.842001 -0.124737 9.090770
1.858660 -0.124746 9.091372
1.874506 -0.124700 9.088021
1.890334 -0.124653 9.084644
1.909069 -0.124798 9.095170
1.925718 -0.124805 9.095669
1.941525 -0.124757 9.092212
1.960293 -0.124899 9.102566
1.976942 -0.124905 9.102984
1.992725 -0.124856 9.099444
2.012031 -0.125027 9.111917
2.028217 -0.125004 9.110174
2.045696 -0.125059 9.114218
2.063741 -0.125148 9.120695
2.081354 -0.125209 9.125180
2.099353 -0.125293 9.131270
2.115097 -0.125242 9.127537
2.134066 -0.125381 9.137668
2.150379 -0.125363 9.136355
2.166441 -0.125331 9.134007
2.185481 -0.125470 9.144155
2.201814 -0.125453 9.142909
2.217819 -0.125417 9.140331
2.233486 -0.125364 9.136407
2.252557 -0.125500 9.146361
2.269253 -0.125503 9.146599
2.287357 -0.125584 9.152465
2.304747 -0.125624 9.155412
2.320563 -0.125579 9.152110
2.338960 -0.125673 9.158960
2.356234 -0.125706 9.161345
2.372015 -0.125659 9.157934
2.391267 -0.125795 9.167878
2.407838 -0.125790 9.167479
2.423473 -0.125736 9.163545
2.442059 -0.125835 9.170747
2.459175 -0.125857 9.172364
2.474781 -0.125802 9.168370
2.494154 -0.125938 9.178292
2.510807 -0.125936 9.178138
2.526237 -0.125873 9.173544
2.545317 -0.125992 9.182178
2.562074 -0.125994 9.182373
2.581373 -0.126121 9.191618
2.596989 -0.126068 9.187715
2.613636 -0.126064 9.187485
2.632883 -0.126186 9.196340
2.653616 -0.126377 9.210238
-2.394433 -0.097841 8.196102
-2.385248 -0.098076 8.215817
-2.370384 -0.098080 8.216097
-2.356380 -0.098119 8.219379
-2.339363 -0.098032 8.212125
-2.325483 -0.098077 8.215862
-2.310566 -0.098078 8.215961
-2.293314 -0.097980 8.207704
-2.279396 -0.098023 8.211350
-2.265473 -0.098067 8.215023
-2.250531 -0.098067 8.215028
-2.233446 -0.097973 8.207157
-2.219481 -0.098016 8.210721
-2.205610 -0.098063 8.214684
-2.191629 -0.098106 8.218292
-2.178321 -0.098180 8.224486
-2.166856 -0.098338 8.237776
-2.152779 -0.098380 8.241249
-2.139872 -0.098476 8.249281
-2.125751 -0.098517 8.252716
-2.114816 -0.098707 8.268655
-2.101680 -0.098797 8.276156
-2.087566 -0.098841 8.279883
-2.076403 -0.099027 8.295458
-2.063227 -0.099119 8.303158
-2.049946 -0.099207 8.310544
-2.038738 -0.099398 8.326508
-2.024429 -0.099439 8.329954
-2.013053 -0.099626 8.345608
-1.999698 -0.099717 8.353233
-1.986421 -0.099813 8.361304
-1.974193 -0.099964 8.373950
-1.960322 -0.100034 8.379769
-1.945870 -0.100074 8.383175
-1.931400 -0.100115 8.386558
-1.919708 -0.100301 8.402151
-1.905181 -0.100341 8.405492
-1.890615 -0.100379 8.408709
-1.876054 -0.100418 8.412002
-1.861476 -0.100457 8.415270
-1.846881 -0.100496 8.418516
-1.832269 -0.100535 8.421739
-1.817618 -0.100572 8.424837
-1.803457 -0.100636 8.430276
-1.789199 -0.100697 8.435351
-1.774513 -0.100734 8.438483
-1.759812 -0.100772 8.441591
-1.747614 -0.100954 8.456871
-1.733377 -0.101021 8.462463
-1.720482 -0.101168 8.474772
-1.706629 -0.101260 8.482537
-1.692636 -0.101346 8.489742
-1.680758 -0.101562 8.507787
-1.666147 -0.101615 8.512207
-1.653640 -0.101798 8.527555
-1.639501 -0.101883 8.534698
-1.626166 -0.102020 8.546206
-1.612429 -0.102135 8.555804
-1.597622 -0.102183 8.559852
-1.582572 -0.102217 8.562669
-1.567507 -0.102250 8.565460
-1.554692 -0.102432 8.580720
-1.539569 -0.102465 8.583425
-1.522219 -0.102348 8.573644
-1.507096 -0.102380 8.576334
-1.491960 -0.102412 8.579000
-1.476784 -0.102442 8.581497
-1.461619 -0.102473 8.584110
-1.448240 -0.102631 8.597381
-1.433336 -0.102684 8.601785
-1.418108 -0.102714 8.604323
-1.402866 -0.102744 8.606836
-1.388297 -0.102825 8.613577
-1.373021 -0.102854 8.616041
-1.357733 -0.102883 8.618479
-1.342431 -0.102912 8.620889
-1.327094 -0.102939 8.623123
-1.311767 -0.102967 8.625481
-1.298318 -0.103145 8.640393
-1.282943 -0.103172 8.642699
-1.267557 -0.103199 8.644979
-1.252158 -0.103226 8.647233
-1.236747 -0.103253 8.649459
-1.221324 -0.103279 8.651658
-1.205796 -0.103297 8.653160
-1.188710 -0.103180 8.643372
-1.173257 -0.103204 8.645357
-1.157811 -0.103229 8.647448
-1.142354 -0.103254 8.649510
-1.126821 -0.103272 8.651051
-1.110853 -0.103250 8.649246
-1.093777 -0.103124 8.638638
-1.078307 -0.103147 8.640587
-1.062818 -0.103169 8.642444
-1.047327 -0.103192 8.644339
-1.031826 -0.103214 8.646205
-1.016314 -0.103236 8.648044
-1.000793 -0.103258 8.649855
-0.985255 -0.103278 8.651579
-0.971129 -0.103450 8.665955
-0.955557 -0.103471 8.667685
-0.940441 -0.103542 8.673688
-0.926191 -0.103713 8.688014
-0.911393 -0.103828 8.697606
-0.896800 -0.103970 8.709533
-0.882709 -0.104177 8.726849
-0.867836 -0.104297 8.736929
-0.853073 -0.104435 8.748508
-0.838005 -0.104541 8.757345
-0.823140 -0.104676 8.768685
-0.807578 -0.104727 8.772908
-0.792905 -0.104897 8.787140
-0.777199 -0.104934 8.790289
-0.762014 -0.105045 8.799575
-0.746758 -0.105151 8.808424
-0.731005 -0.105189 8.811675
-0.715280 -0.105234 8.815417
-0.699344 -0.105249 8.816667
-0.683401 -0.105264 8.817883
-0.667453 -0.105278 8.819095
-0.651498 -0.105292 8.820275
-0.635537 -0.105306 8.821427
-0.619569 -0.105319 8.822532
-0.603594 -0.105332 8.823607
-0.587615 -0.105345 8.824674
-0.571630 -0.105357 8.825707
-0.555639 -0.105369 8.826704
-0.539643 -0.105380 8.827675
-0.523641 -0.105392 8.828611
-0.508090 -0.105497 8.837452
-0.492340 -0.105567 8.843291
-0.476536 -0.105629 8.848525
-0.460922 -0.105740 8.857784
-0.445221 -0.105838 8.865980
-0.429203 -0.105864 8.868220
-0.413522 -0.105980 8.877897
-0.397781 -0.106089 8.887009
-0.382202 -0.106252 8.900655
-0.366609 -0.106425 8.915176
-0.350684 -0.106514 8.922609
-0.334887 -0.106652 8.934156
-0.318891 -0.106737 8.941326
-0.302681 -0.106756 8.942905
-0.286847 -0.106918 8.956452
-0.271021 -0.107102 8.971868
-0.254890 -0.107181 8.978520
-0.238880 -0.107325 8.990603
-0.222684 -0.107402 8.996997
-0.206600 -0.107548 9.009261
-0.190260 -0.107575 9.011518
-0.173651 -0.107441 9.000295
-0.156975 -0.107233 8.982838
-0.138545 -0.105639 8.849367
-0.115093 -0.099294 8.317784
-0.093048 -0.092425 7.742389
-0.076965 -0.090085 7.546347
-0.062625 -0.089212 7.473223
-0.048765 -0.088727 7.432631
-0.035107 -0.088380 7.403520
-0.021597 -0.088204 7.388781
-0.008141 -0.088031 7.374340
0.005262 -0.087858 7.359835
0.018613 -0.087685 7.345335
0.031934 -0.087577 7.336254
0.045202 -0.087428 7.323776
0.058466 -0.087341 7.316481
0.071704 -0.087255 7.309310
0.084915 -0.087168 7.302002
0.098194 -0.087165 7.301806
0.111473 -0.087163 7.301584
0.124750 -0.087160 7.301338
0.138026 -0.087157 7.301069
0.151417 -0.087220 7.306372
0.164754 -0.087245 7.308470
0.178192 -0.087315 7.314383
0.191663 -0.087391 7.320707
0.205422 -0.087580 7.336535
0.219165 -0.087739 7.349879
0.241113 -0.090976 7.621037
0.304927 -0.108799 9.114031
0.318226 -0.107689 9.021074
0.334248 -0.107564 9.010622
0.350612 -0.107556 9.009956
0.366973 -0.107548 9.009265
0.383330 -0.107539 9.008535
0.399683 -0.107531 9.007788
0.416231 -0.107573 9.011308
0.433007 -0.107668 9.019317
0.449371 -0.107658 9.018475
0.465730 -0.107648 9.017593
0.482085 -0.107637 9.016697
0.498434 -0.107626 9.015757
0.514882 -0.107636 9.016603
0.531381 -0.107656 9.018271
0.547723 -0.107643 9.017240
0.564881 -0.107788 9.029325
0.581238 -0.107775 9.028269
0.597586 -0.107762 9.027146
0.614073 -0.107773 9.028135
0.630576 -0.107787 9.029287
0.646913 -0.107773 9.028074
0.663746 -0.107839 9.033661
0.680562 -0.107900 9.038763
0.696903 -0.107885 9.037458
0.713236 -0.107869 9.036124
0.729563 -0.107852 9.034760
0.745886 -0.107836 9.033414
0.762198 -0.107819 9.031991
0.778502 -0.107802 9.030540
0.794798 -0.107784 9.029058
0.811088 -0.107767 9.027577
0.827370 -0.107749 9.026057
0.843642 -0.107730 9.024487
0.859905 -0.107711 9.022887
0.876454 -0.107728 9.024293
0.892851 -0.107725 9.024114
0.910030 -0.107816 9.031693
0.926683 -0.107842 9.033881
0.942933 -0.107821 9.032133
0.959526 -0.107840 9.033672
0.975893 -0.107832 9.033072
0.992124 -0.107811 9.031251
1.008344 -0.107788 9.029386
1.024553 -0.107766 9.027491
1.042270 -0.107900 9.038729
1.058488 -0.107877 9.036827
1.074692 -0.107854 9.034856
1.090883 -0.107830 9.032844
1.107064 -0.107805 9.030803
1.123234 -0.107781 9.028743
1.139393 -0.107756 9.026644
1.155539 -0.107730 9.024515
1.171675 -0.107704 9.022359
1.187816 -0.107680 9.020308
1.203929 -0.107654 9.018098
1.220030 -0.107627 9.015860
1.236119 -0.107600 9.013594
1.252196 -0.107572 9.011298
1.268261 -0.107545 9.008978
1.284313 -0.107517 9.006625
1.300352 -0.107488 9.004245
1.317032 -0.107513 9.006304
1.333077 -0.107486 9.004025
1.349085 -0.107456 9.001560
1.365081 -0.107426 8.999068
1.383077 -0.107553 9.009666
1.399070 -0.107522 9.007115
1.415114 -0.107497 9.004956
1.431726 -0.107514 9.006413
1.449796 -0.107639 9.016910
1.465858 -0.107614 9.014817
1.482758 -0.107651 9.017871
1.500612 -0.107755 9.026601
1.517321 -0.107776 9.028324
1.533669 -0.107770 9.027887
1.551612 -0.107876 9.036747
1.568651 -0.107918 9.040210
1.586610 -0.108021 9.048851
1.603714 -0.108064 9.052484
1.621479 -0.108151 9.059740
1.638236 -0.108169 9.061276
1.656586 -0.108291 9.071502
1.672788 -0.108272 9.069881
1.689324 -0.108274 9.070085
1.707731 -0.108395 9.080236
1.723659 -0.108358 9.077134
1.740433 -0.108375 9.078506
1.756350 -0.108338 9.075419
1.773150 -0.108356 9.076913
1.790715 -0.108420 9.082260
1.806930 -0.108401 9.080725
1.823354 -0.108396 9.080260
1.839231 -0.108358 9.077101
1.855064 -0.108318 9.073782
1.870879 -0.108278 9.070437
1.889428 -0.108396 9.080290
1.906198 -0.108410 9.081494
1.921992 -0.108369 9.078069
1.940594 -0.108486 9.087852
1.957346 -0.108499 9.088879
1.973117 -0.108457 9.085371
1.991769 -0.108573 9.095081
2.008547 -0.108585 9.096140
2.025889 -0.108628 9.099714
2.044008 -0.108711 9.106698
2.061446 -0.108757 9.110556
2.079123 -0.108815 9.115397
2.095291 -0.108794 9.113602
2.114083 -0.108908 9.123159
2.130857 -0.108917 9.123925
2.146562 -0.108872 9.120140
2.164269 -0.108928 9.124848
2.181112 -0.108940 9.125875
2.197506 -0.108930 9.125022
2.213527 -0.108902 9.122643
2.232415 -0.109014 9.132024
2.248838 -0.109004 9.131261
2.264862 -0.108976 9.128899
2.282824 -0.109041 9.134327
2.300248 -0.109079 9.137543
2.318616 -0.109162 9.144430
2.335117 -0.109155 9.143909
2.351899 -0.109162 9.144491
2.370154 -0.109237 9.150749
2.387437 -0.109266 9.153196
2.403178 -0.109225 9.149738
2.421704 -0.109310 9.156855
2.438785 -0.109329 9.158449
2.454571 -0.109290 9.155195
2.473109 -0.109374 9.162177
2.490252 -0.109394 9.163933
2.505948 -0.109352 9.160376
2.525025 -0.109457 9.169143
2.541709 -0.109457 9.169160
2.557195 -0.109406 9.164886
2.576222 -0.109506 9.173276
2.593082 -0.109513 9.173893
2.612251 -0.109618 9.182615
2.628982 -0.109619 9.182712
2.649614 -0.109781 9.196347
-2.393116 -0.083175 8.191596
-2.380642 -0.083260 8.199954
-2.366926 -0.083302 8.204110
-2.351801 -0.083295 8.203405
-2.337910 -0.083332 8.207027
-2.320975 -0.083260 8.199938
-2.307130 -0.083298 8.203745
-2.292060 -0.083293 8.203216
-2.274978 -0.083214 8.195434
-2.261211 -0.083256 8.199570
-2.247283 -0.083293 8.203172
-2.233475 -0.083334 8.207263
-2.219509 -0.083370 8.210827
-2.205638 -0.083410 8.214791
-2.191658 -0.083447 8.218399
-2.177744 -0.083487 8.222307
-2.163729 -0.083523 8.225887
-2.149672 -0.083558 8.229356
-2.135724 -0.083598 8.233292
-2.122343 -0.083661 8.239484
-2.110582 -0.083789 8.252100
-2.097607 -0.083871 8.260117
-2.084328 -0.083941 8.267042
-2.072583 -0.084075 8.280197
-2.059228 -0.084144 8.287065
-2.047882 -0.084298 8.302179
-2.034787 -0.084381 8.310371
-2.021465 -0.084456 8.317759
-2.009420 -0.084586 8.330547
-1.995822 -0.084652 8.337044
-1.984241 -0.084805 8.352128
-1.970290 -0.084858 8.357395
-1.956523 -0.084921 8.363530
-1.943224 -0.085004 8.371777
-1.930344 -0.085108 8.381974
-1.915865 -0.085142 8.385331
-1.901368 -0.085176 8.388665
-1.886830 -0.085209 8.391875
-1.872299 -0.085242 8.395162
-1.857749 -0.085275 8.398424
-1.843703 -0.085332 8.404032
-1.829625 -0.085388 8.409587
-1.814995 -0.085420 8.412682
-1.800372 -0.085452 8.415854
-1.785731 -0.085484 8.419004
-1.771075 -0.085516 8.422132
-1.756402 -0.085547 8.425234
-1.744116 -0.085697 8.439942
-1.729974 -0.085757 8.445851
-1.717080 -0.085880 8.458015
-1.703812 -0.085987 8.468534
-1.689356 -0.086035 8.473289
-1.677463 -0.086216 8.491111
-1.664462 -0.086343 8.503596
-1.650957 -0.086446 8.513719
-1.636324 -0.086491 8.518160
-1.623613 -0.086639 8.532788
-1.609531 -0.086717 8.540428
-1.596145 -0.086834 8.551938
-1.581707 -0.086895 8.557991
-1.566651 -0.086924 8.560781
-1.552245 -0.086989 8.567218
-1.536678 -0.086990 8.567307
-1.521387 -0.087007 8.568960
-1.506273 -0.087034 8.571651
-1.491145 -0.087061 8.574314
-1.475977 -0.087086 8.576809
-1.460821 -0.087113 8.579421
-1.445651 -0.087139 8.582007
-1.431160 -0.087207 8.588729
-1.416062 -0.087240 8.591911
-1.400842 -0.087265 8.594420
-1.385607 -0.087290 8.596888
-1.370361 -0.087315 8.599346
-1.355102 -0.087340 8.601778
-1.339830 -0.087364 8.604185
-1.326282 -0.087503 8.617851
-1.311050 -0.087533 8.620770
-1.295719 -0.087556 8.623099
-1.280375 -0.087580 8.625401
-1.265728 -0.087652 8.632509
-1.250351 -0.087675 8.634759
-1.234963 -0.087697 8.636982
-1.219562 -0.087720 8.639178
-1.204114 -0.087739 8.641090
-1.188060 -0.087714 8.638651
-1.172489 -0.087725 8.639695
-1.155568 -0.087633 8.630693
-1.140140 -0.087654 8.632751
-1.124702 -0.087675 8.634783
-1.109251 -0.087695 8.636771
-1.093792 -0.087715 8.638756
-1.077718 -0.087686 8.635867
-1.060759 -0.087583 8.625699
-1.045297 -0.087602 8.627588
-1.029826 -0.087621 8.629452
-1.014345 -0.087639 8.631288
-0.998854 -0.087658 8.633095
-0.984717 -0.087798 8.646855
-0.969186 -0.087815 8.648610
-0.953644 -0.087833 8.650338
-0.938619 -0.087899 8.656883
-0.923408 -0.087950 8.661913
-0.908732 -0.088055 8.672219
-0.894870 -0.088244 8.690795
-0.880103 -0.088348 8.701085
-0.865415 -0.088465 8.712553
-0.851222 -0.088637 8.729526
-0.835951 -0.088701 8.735880
-0.821343 -0.088840 8.749550
-0.806014 -0.088905 8.755912
-0.791318 -0.089043 8.769554
-0.775923 -0.089107 8.775854
-0.760517 -0.089173 8.782292
-0.745263 -0.089259 8.790795
-0.729791 -0.089322 8.797043
-0.713894 -0.089336 8.798338
-0.697989 -0.089348 8.799584
-0.682077 -0.089361 8.800799
-0.666616 -0.089434 8.808029
-0.651143 -0.089510 8.815461
-0.634762 -0.089461 8.810666
-0.618368 -0.089408 8.805438
-0.602879 -0.089486 8.813151
-0.587294 -0.089554 8.819856
-0.571318 -0.089565 8.820889
-0.554889 -0.089503 8.814785
-0.538597 -0.089460 8.810572
-0.523066 -0.089545 8.818917
-0.507357 -0.089603 8.824705
-0.491629 -0.089663 8.830536
-0.475612 -0.089671 8.831381
-0.460232 -0.089805 8.844525
-0.444432 -0.089863 8.850272
-0.428371 -0.089871 8.851040
-0.412880 -0.090004 8.864123
-0.397010 -0.090061 8.869791
-0.381437 -0.090194 8.882843
-0.365881 -0.090342 8.897489
-0.349999 -0.090420 8.905176
-0.334222 -0.090535 8.916419
-0.318269 -0.090610 8.923869
-0.302094 -0.090628 8.925580
-0.286400 -0.090799 8.942488
-0.270180 -0.090815 8.944012
-0.254277 -0.090946 8.956929
-0.238404 -0.091106 8.972710
-0.222146 -0.091132 8.975248
-0.205943 -0.091187 8.980633
-0.189879 -0.091317 8.993484
-0.173313 -0.091208 8.982786
-0.156567 -0.090972 8.959537
-0.138858 -0.090057 8.869338
-0.118696 -0.087100 8.578157
-0.091874 -0.077622 7.644744
-0.076378 -0.076039 7.488771
-0.062409 -0.075618 7.447373
-0.048671 -0.075322 7.418230
-0.035106 -0.075171 7.403306
-0.021577 -0.074952 7.381740
-0.008133 -0.074805 7.367245
0.005257 -0.074658 7.352754
0.018596 -0.074513 7.338469
0.031912 -0.074438 7.331147
0.045201 -0.074362 7.323595
0.058464 -0.074287 7.316233
0.071699 -0.074212 7.308855
0.084916 -0.074143 7.302104
0.098196 -0.074141 7.301908
0.111474 -0.074139 7.301686
0.124752 -0.074137 7.301441
0.138028 -0.074134 7.301170
0.151303 -0.074131 7.300875
0.164737 -0.074200 7.307689
0.178052 -0.074209 7.308615
0.191515 -0.074275 7.315087
0.205179 -0.074405 7.327840
0.218760 -0.074491 7.336307
0.232445 -0.074600 7.347056
0.294570 -0.089398 8.804467
0.317091 -0.091271 8.988907
0.333600 -0.091314 8.993165
0.350068 -0.091343 8.995987
0.366262 -0.091300 8.991811
0.382587 -0.091293 8.991082
0.398909 -0.091285 8.990337
0.415804 -0.091404 9.002081
0.432140 -0.091396 9.001266
0.448471 -0.091388 9.000427
0.464798 -0.091379 8.999547
0.480703 -0.091290 8.990863
0.497437 -0.091360 8.997713
0.514037 -0.091402 9.001800
0.530352 -0.091391 9.000800
0.546662 -0.091381 8.999770
0.563751 -0.091498 9.011255
0.580074 -0.091487 9.010201
0.596390 -0.091475 9.009081
0.612699 -0.091464 9.007930
0.629354 -0.091503 9.011794
0.645660 -0.091491 9.010584
0.662438 -0.091544 9.015861
0.679200 -0.091593 9.020673
0.695508 -0.091580 9.019372
0.712030 -0.091595 9.020834
0.728511 -0.091604 9.021729
0.744393 -0.091539 9.015336
0.760672 -0.091525 9.013916
0.776944 -0.091510 9.012466
0.793207 -0.091495 9.010988
0.808757 -0.091400 9.001632
0.824565 -0.091337 8.995452
0.841547 -0.091404 9.002076
0.858184 -0.091432 9.004830
0.874406 -0.091416 9.003204
0.891121 -0.091451 9.006629
0.907336 -0.091434 9.004962
0.924828 -0.091544 9.015800
0.941046 -0.091526 9.014056
0.957254 -0.091508 9.012281
0.974002 -0.091541 9.015570
0.990202 -0.091523 9.013753
1.007482 -0.091603 9.021667
1.023993 -0.091612 9.022561
1.040184 -0.091593 9.020638
1.056370 -0.091574 9.018741
1.072541 -0.091554 9.016774
1.088700 -0.091533 9.014766
1.105467 -0.091564 9.017777
1.121614 -0.091543 9.015718
1.137749 -0.091522 9.013622
1.153873 -0.091500 9.011497
1.169985 -0.091478 9.009345
1.186103 -0.091457 9.007296
1.202193 -0.091435 9.005089
1.218270 -0.091412 9.002854
1.234336 -0.091389 9.000590
1.250390 -0.091366 8.998299
1.266431 -0.091342 8.995982
1.282460 -0.091319 8.993633
1.298476 -0.091294 8.991255
1.314479 -0.091270 8.988852
1.330494 -0.091247 8.986578
1.346471 -0.091222 8.984118
1.364335 -0.091324 8.994151
1.380309 -0.091298 8.991633
1.396269 -0.091272 8.989087
1.413009 -0.091298 8.991562
1.428951 -0.091271 8.988960
1.446894 -0.091372 8.998861
1.462936 -0.091351 8.996848
1.479581 -0.091369 8.998552
1.497609 -0.091470 9.008533
1.513533 -0.091442 9.005786
1.530300 -0.091465 9.008054
1.548360 -0.091564 9.017806
1.565148 -0.091587 9.020021
1.583265 -0.091686 9.029772
1.600073 -0.091708 9.031937
1.618233 -0.091806 9.041606
1.634378 -0.091789 9.039937
1.651579 -0.091831 9.044087
1.669209 -0.091896 9.050479
1.686050 -0.091916 9.052508
1.704313 -0.092013 9.062060
1.720209 -0.091982 9.058964
1.737061 -0.092002 9.060912
1.752947 -0.091970 9.057834
1.769673 -0.091984 9.059117
1.787130 -0.092034 9.064079
1.803985 -0.092053 9.065923
1.819821 -0.092020 9.062664
1.836699 -0.092039 9.064602
1.854050 -0.092082 9.068824
1.870904 -0.092100 9.070559
1.886702 -0.092065 9.067188
1.902504 -0.092032 9.063894
1.920942 -0.092126 9.073109
1.937228 -0.092115 9.072088
1.953552 -0.092107 9.071263
1.970674 -0.092136 9.074123
1.988356 -0.092190 9.079495
2.004654 -0.092180 9.078511
2.023187 -0.092273 9.087579
2.040047 -0.092287 9.089050
2.058622 -0.092379 9.098073
2.075528 -0.092395 9.099635
2.092952 -0.092433 9.103430
2.109851 -0.092448 9.104895
2.126727 -0.092462 9.106241
2.144278 -0.092505 9.110435
2.161067 -0.092514 9.111349
2.177965 -0.092528 9.112706
2.193611 -0.092488 9.108848
2.209238 -0.092449 9.104962
2.227946 -0.092538 9.113743
2.244437 -0.092535 9.113391
2.262727 -0.092605 9.120295
2.279156 -0.092598 9.119651
2.296085 -0.092612 9.121004
2.314010 -0.092665 9.126266
2.330442 -0.092659 9.125603
2.347341 -0.092670 9.126768
2.366130 -0.092756 9.135214
2.383042 -0.092768 9.136345
2.398520 -0.092724 9.132003
2.417460 -0.092813 9.140808
2.434250 -0.092819 9.141419
2.452727 -0.092889 9.148316
2.470023 -0.092914 9.150745
2.485576 -0.092873 9.146724
2.504197 -0.092947 9.153973
2.521244 -0.092961 9.155413
2.536888 -0.092924 9.151769
2.555796 -0.093007 9.159874
2.572726 -0.093016 9.160830
2.588056 -0.092968 9.156111
2.607151 -0.093055 9.164687
2.623914 -0.093059 9.165011
2.644512 -0.093197 9.178640
-2.388318 -0.068425 8.175171
-2.376021 -0.068499 8.184034
-2.362368 -0.068535 8.188312
-2.347085 -0.068524 8.186957
-2.333395 -0.068559 8.191175
-2.316469 -0.068499 8.184018
-2.302752 -0.068534 8.188176
-2.288762 -0.068561 8.191412
-2.273582 -0.068553 8.190404
-2.259823 -0.068587 8.194536
-2.242920 -0.068526 8.187247
-2.229139 -0.068560 8.191331
-2.215201 -0.068590 8.194887
-2.201356 -0.068623 8.198844
-2.187403 -0.068654 8.202445
-2.173516 -0.068686 8.206346
-2.159529 -0.068716 8.209919
-2.145499 -0.068745 8.213381
-2.132225 -0.068799 8.219803
-2.120329 -0.068898 8.231665
-2.107664 -0.068974 8.240693
-2.093535 -0.069002 8.244081
-2.082241 -0.069125 8.258765
-2.068466 -0.069167 8.263748
-2.055231 -0.069227 8.270978
-2.043776 -0.069349 8.285532
-2.030836 -0.069422 8.294237
-2.017497 -0.069482 8.301431
-2.005436 -0.069587 8.314032
-1.992917 -0.069679 8.324906
-1.980262 -0.069766 8.335381
-1.966389 -0.069812 8.340846
-1.952725 -0.069866 8.347293
-1.939400 -0.069933 8.355303
-1.926474 -0.070015 8.365167
-1.912023 -0.070044 8.368518
-1.897555 -0.070071 8.371846
-1.883047 -0.070098 8.375049
-1.868544 -0.070126 8.378328
-1.854025 -0.070153 8.381585
-1.839488 -0.070180 8.384818
-1.826073 -0.070251 8.393263
-1.811472 -0.070276 8.396351
-1.796877 -0.070303 8.399519
-1.782265 -0.070329 8.402663
-1.767637 -0.070355 8.405783
-1.752992 -0.070381 8.408879
-1.740619 -0.070500 8.423020
-1.726999 -0.070569 8.431330
-1.713680 -0.070652 8.441265
-1.700464 -0.070741 8.451897
-1.687513 -0.070843 8.464049
-1.674170 -0.070930 8.474441
-1.661160 -0.071033 8.486729
-1.647719 -0.071119 8.497019
-1.634648 -0.071223 8.509436
-1.621069 -0.071307 8.519418
-1.606408 -0.071344 8.523852
-1.592972 -0.071436 8.534941
-1.578536 -0.071486 8.540833
-1.563510 -0.071509 8.543617
-1.549209 -0.071566 8.550459
-1.534364 -0.071599 8.554405
-1.518337 -0.071577 8.551781
-1.504191 -0.071645 8.559804
-1.488327 -0.071630 8.558109
-1.473018 -0.071643 8.559613
-1.457892 -0.071665 8.562221
-1.443521 -0.071725 8.569363
-1.428490 -0.071753 8.572702
-1.413313 -0.071774 8.575234
-1.398123 -0.071795 8.577738
-1.382917 -0.071815 8.580201
-1.367701 -0.071836 8.582655
-1.352472 -0.071856 8.585083
-1.339008 -0.071972 8.598907
-1.323710 -0.071991 8.601136
-1.308422 -0.072010 8.603487
-1.293122 -0.072030 8.605812
-1.278606 -0.072094 8.613482
-1.263272 -0.072113 8.615755
-1.247925 -0.072132 8.618000
-1.232566 -0.072150 8.620219
-1.217195 -0.072169 8.622412
-1.201813 -0.072187 8.624576
-1.186419 -0.072205 8.626714
-1.170996 -0.072221 8.628695
-1.155580 -0.072239 8.630782
-1.139441 -0.072211 8.627458
-1.124012 -0.072228 8.629487
-1.108382 -0.072232 8.630004
-1.091669 -0.072165 8.621988
-1.076228 -0.072181 8.623934
-1.060108 -0.072152 8.620408
-1.044656 -0.072168 8.622298
-1.027828 -0.072087 8.612705
-1.012650 -0.072122 8.616863
-0.998241 -0.072214 8.627801
-0.982743 -0.072228 8.629521
-0.967243 -0.072243 8.631273
-0.951732 -0.072257 8.632997
-0.936368 -0.072283 8.636124
-0.921600 -0.072357 8.644947
-0.906911 -0.072440 8.654834
-0.891890 -0.072499 8.661853
-0.877461 -0.072608 8.674964
-0.862750 -0.072699 8.685732
-0.848422 -0.072825 8.700818
-0.833808 -0.072931 8.713490
-0.819697 -0.073086 8.732010
-0.804137 -0.073115 8.735530
-0.789092 -0.073194 8.744891
-0.774129 -0.073283 8.755563
-0.759021 -0.073362 8.765016
-0.743769 -0.073430 8.773173
-0.728121 -0.073462 8.776907
-0.712509 -0.073498 8.781262
-0.696635 -0.073509 8.782507
-0.681659 -0.073617 8.795403
-0.665751 -0.073627 8.796611
-0.649837 -0.073636 8.797789
-0.633917 -0.073646 8.798939
-0.617989 -0.073655 8.800038
-0.602055 -0.073664 8.801113
-0.586117 -0.073673 8.802175
-0.570173 -0.073682 8.803207
-0.554222 -0.073690 8.804202
-0.538267 -0.073698 8.805169
-0.522306 -0.073706 8.806106
-0.506340 -0.073714 8.807014
-0.490675 -0.073767 8.813398
-0.475094 -0.073837 8.821753
-0.459309 -0.073879 8.826796
-0.443570 -0.073932 8.833096
-0.427540 -0.073938 8.833862
-0.412053 -0.074043 8.846354
-0.396240 -0.074095 8.852577
-0.380672 -0.074199 8.865037
-0.365154 -0.074323 8.879808
-0.349314 -0.074389 8.887747
-0.333557 -0.074481 8.898686
-0.317646 -0.074546 8.906418
-0.301508 -0.074561 8.908257
-0.285699 -0.074664 8.920611
-0.269655 -0.074715 8.926654
-0.253768 -0.074818 8.938973
-0.237667 -0.074868 8.944971
-0.221700 -0.074971 8.957258
-0.205415 -0.074974 8.957615
-0.189464 -0.075110 8.973853
-0.172976 -0.075038 8.965284
-0.156288 -0.074856 8.943552
-0.139121 -0.074376 8.886138
-0.121955 -0.073770 8.813719
-0.091134 -0.063470 7.583108
-0.076207 -0.062540 7.472021
-0.062367 -0.062292 7.442343
-0.048670 -0.062089 7.418150
-0.035107 -0.061965 7.403385
-0.021577 -0.061785 7.381819
-0.008134 -0.061664 7.367323
0.005257 -0.061542 7.352832
0.018596 -0.061423 7.338546
0.031912 -0.061361 7.331110
0.045201 -0.061298 7.323673
0.058464 -0.061237 7.316311
0.071700 -0.061175 7.308932
0.084917 -0.061118 7.302182
0.098197 -0.061117 7.301985
0.111471 -0.061113 7.301499
0.124631 -0.061053 7.294391
0.137992 -0.061094 7.299290
0.151312 -0.061111 7.301302
0.164738 -0.061165 7.307767
0.178054 -0.061173 7.308693
0.191492 -0.061219 7.314193
0.204854 -0.061236 7.316240
0.218709 -0.061390 7.334589
0.232446 -0.061494 7.347070
0.260417 -0.065148 7.783655
0.317385 -0.075306 8.997223
0.333278 -0.075199 8.984479
0.349383 -0.075148 8.978369
0.365551 -0.075114 8.974360
0.381844 -0.075108 8.973633
0.398134 -0.075102 8.972889
0.414971 -0.075195 8.984035
0.431274 -0.075189 8.983223
0.447572 -0.075182 8.982385
0.463641 -0.075138 8.977144
0.479759 -0.075105 8.973196
0.496439 -0.075159 8.979677
0.513039 -0.075198 8.984330
0.529323 -0.075189 8.983333
0.545912 -0.075224 8.987419
0.562621 -0.075272 8.993193
0.578912 -0.075263 8.992141
0.595194 -0.075254 8.991022
0.611471 -0.075244 8.989874
0.627741 -0.075234 8.988696
0.644407 -0.075271 8.993098
0.660677 -0.075261 8.991901
0.677838 -0.075351 9.002591
0.694114 -0.075340 9.001291
0.710382 -0.075329 8.999963
0.726643 -0.075317 8.998605
0.742901 -0.075306 8.997264
0.759147 -0.075294 8.995847
0.774356 -0.075182 8.982453
0.790566 -0.075170 8.980980
0.806453 -0.075128 8.975989
0.822451 -0.075098 8.972395
0.839149 -0.075132 8.976433
0.855326 -0.075118 8.974843
0.872653 -0.075205 8.985156
0.888837 -0.075191 8.983543
0.905576 -0.075224 8.987487
0.922626 -0.075281 8.994328
0.939159 -0.075295 8.995986
0.955335 -0.075281 8.994215
0.972112 -0.075313 8.998075
0.988280 -0.075298 8.996260
1.004437 -0.075282 8.994401
1.021941 -0.075366 9.004475
1.038099 -0.075350 9.002557
1.054252 -0.075335 9.000662
1.070391 -0.075318 8.998697
1.087087 -0.075341 9.001413
1.103321 -0.075331 9.000275
1.119437 -0.075314 8.998221
1.135541 -0.075297 8.996130
1.151633 -0.075279 8.994009
1.167714 -0.075261 8.991860
1.183801 -0.075244 8.989814
1.199859 -0.075225 8.987612
1.215906 -0.075207 8.985381
1.231941 -0.075188 8.983123
1.247963 -0.075169 8.980835
1.263973 -0.075149 8.978523
1.279971 -0.075130 8.976178
1.295956 -0.075110 8.973805
1.313673 -0.075190 8.983338
1.329677 -0.075170 8.981066
1.345645 -0.075150 8.978607
1.361600 -0.075129 8.976121
1.377542 -0.075108 8.973608
1.394340 -0.075134 8.976665
1.410267 -0.075112 8.974111
1.426374 -0.075101 8.972745
1.443993 -0.075168 8.980821
1.460015 -0.075152 8.978884
1.476709 -0.075171 8.981087
1.492925 -0.075165 8.980359
1.510499 -0.075226 8.987730
1.527330 -0.075250 8.990569
1.543594 -0.075246 8.990050
1.561333 -0.075313 8.998038
1.578444 -0.075348 9.002279
1.596968 -0.075450 9.014405
1.613360 -0.075449 9.014377
1.630870 -0.075501 9.020535
1.648346 -0.075550 9.026380
1.665863 -0.075600 9.032333
1.682778 -0.075621 9.034938
1.699321 -0.075626 9.035520
1.716760 -0.075670 9.040802
1.733689 -0.075692 9.043324
1.750337 -0.075700 9.044348
1.767717 -0.075740 9.049104
1.784660 -0.075760 9.051552
1.800483 -0.075733 9.048326
1.818705 -0.075807 9.057104
1.834541 -0.075781 9.053951
1.851488 -0.075800 9.056291
1.867273 -0.075772 9.052952
1.883040 -0.075744 9.049587
1.901337 -0.075817 9.058333
1.917090 -0.075789 9.054917
1.934033 -0.075807 9.057125
1.949761 -0.075778 9.053657
1.968084 -0.075850 9.062200
1.984435 -0.075844 9.061589
2.002168 -0.075892 9.067252
2.019811 -0.075935 9.072417
2.036087 -0.075927 9.071405
2.054495 -0.075997 9.079832
2.071499 -0.076015 9.081971
2.089947 -0.076085 9.090358
2.106413 -0.076083 9.090059
2.122599 -0.076070 9.088565
2.138244 -0.076039 9.084796
2.156734 -0.076108 9.093080
2.173266 -0.076108 9.093049
2.189353 -0.076092 9.091165
2.206937 -0.076128 9.095483
2.223479 -0.076128 9.095469
2.240452 -0.076143 9.097212
2.258231 -0.076184 9.102174
2.274586 -0.076177 9.101364
2.291628 -0.076194 9.103298
2.310164 -0.076259 9.111098
2.327220 -0.076275 9.112988
2.342784 -0.076242 9.109051
2.361385 -0.076307 9.116896
2.378416 -0.076322 9.118609
2.397048 -0.076387 9.126397
2.414118 -0.076402 9.128173
2.429524 -0.076364 9.123672
2.448310 -0.076432 9.131840
2.465228 -0.076442 9.132980
2.483648 -0.076498 9.139628
2.500945 -0.076518 9.142087
2.516486 -0.076485 9.138134
2.535046 -0.076544 9.145125
2.550672 -0.076513 9.141507
2.567731 -0.076526 9.143044
2.586467 -0.076589 9.150489
2.603547 -0.076601 9.152018
2.618820 -0.076561 9.147218
2.642869 -0.076776 9.172938
-2.385157 -0.053771 8.164351
-2.371401 -0.053796 8.168121
-2.357774 -0.053824 8.172389
-2.343918 -0.053847 8.175909
-2.328709 -0.053839 8.174726
-2.314700 -0.053859 8.177768
-2.298275 -0.053823 8.172256
-2.284440 -0.053847 8.175946
-2.269016 -0.053834 8.173955
-2.255285 -0.053861 8.178079
-2.238559 -0.053817 8.171329
-2.224805 -0.053844 8.175404
-2.210893 -0.053867 8.178953
-2.197076 -0.053893 8.182902
-2.183150 -0.053917 8.186497
-2.169290 -0.053943 8.190390
-2.155330 -0.053966 8.193956
-2.141912 -0.054003 8.199649
-2.130127 -0.054083 8.211715
-2.116421 -0.054114 8.216495
-2.103567 -0.054168 8.224671
-2.090168 -0.054209 8.230821
-2.078060 -0.054284 8.242181
-2.065358 -0.054344 8.251331
-2.051235 -0.054367 8.254897
-2.039672 -0.054460 8.268894
-2.026888 -0.054520 8.278111
-2.015210 -0.054612 8.292021
-2.001454 -0.054648 8.297523
-1.988995 -0.054721 8.308525
-1.976285 -0.054787 8.318642
-1.961961 -0.054810 8.322066
-1.948929 -0.054869 8.331065
-1.934560 -0.054891 8.334450
-1.922605 -0.054983 8.348368
-1.908184 -0.055005 8.351713
-1.893745 -0.055027 8.355034
-1.879266 -0.055048 8.358231
-1.864792 -0.055069 8.361503
-1.850301 -0.055091 8.364754
-1.835794 -0.055112 8.367980
-1.821269 -0.055133 8.371183
-1.807364 -0.055174 8.377308
-1.793383 -0.055212 8.383187
-1.778800 -0.055233 8.386326
-1.764200 -0.055253 8.389441
-1.749584 -0.055274 8.392530
-1.737124 -0.055363 8.406107
-1.723172 -0.055406 8.412642
-1.711112 -0.055512 8.428617
-1.697118 -0.055555 8.435264
-1.684163 -0.055634 8.447248
-1.670878 -0.055704 8.457778
-1.657860 -0.055783 8.469868
-1.644481 -0.055852 8.480324
-1.629972 -0.055883 8.485097
-1.617104 -0.055972 8.498581
-1.603284 -0.056030 8.507280
-1.590348 -0.056119 8.520879
-1.575367 -0.056138 8.523683
-1.560371 -0.056156 8.526462
-1.545360 -0.056174 8.529215
-1.530327 -0.056192 8.531902
-1.516331 -0.056248 8.540482
-1.501267 -0.056266 8.543163
-1.486189 -0.056283 8.545819
-1.471072 -0.056300 8.548306
-1.455966 -0.056317 8.550909
-1.440846 -0.056334 8.553487
-1.425713 -0.056351 8.556038
-1.410566 -0.056367 8.558563
-1.395405 -0.056384 8.561063
-1.380229 -0.056400 8.563521
-1.365042 -0.056416 8.565970
-1.349842 -0.056432 8.568394
-1.334630 -0.056448 8.570790
-1.321052 -0.056534 8.583864
-1.305795 -0.056549 8.586211
-1.290525 -0.056565 8.588531
-1.276121 -0.056619 8.596737
-1.260816 -0.056634 8.599004
-1.245499 -0.056648 8.601246
-1.230170 -0.056663 8.603460
-1.214829 -0.056677 8.605648
-1.200995 -0.056763 8.618707
-1.184112 -0.056706 8.609941
-1.168719 -0.056719 8.611921
-1.153333 -0.056732 8.614003
-1.137936 -0.056746 8.616058
-1.122527 -0.056759 8.618087
-1.107106 -0.056772 8.620070
-1.090926 -0.056746 8.616122
-1.075288 -0.056748 8.616397
-1.058707 -0.056700 8.609020
-1.043276 -0.056712 8.610908
-1.027128 -0.056685 8.606844
-1.011688 -0.056697 8.608674
-0.996237 -0.056709 8.610478
-0.980770 -0.056721 8.612195
-0.965301 -0.056732 8.613943
-0.949821 -0.056743 8.615663
-0.934976 -0.056794 8.623286
-0.919468 -0.056805 8.624952
-0.905090 -0.056887 8.637456
-0.889730 -0.056909 8.640871
-0.874941 -0.056970 8.650055
-0.860300 -0.057042 8.661061
-0.846155 -0.057151 8.677568
-0.831453 -0.057226 8.688881
-0.816660 -0.057297 8.699662
-0.802333 -0.057404 8.715933
-0.787539 -0.057481 8.727674
-0.772380 -0.057535 8.735785
-0.757127 -0.057583 8.743143
-0.741739 -0.057623 8.749228
-0.726459 -0.057673 8.756877
-0.711124 -0.057722 8.764193
-0.695690 -0.057764 8.770601
-0.680290 -0.057811 8.777744
-0.664415 -0.057819 8.778949
-0.648757 -0.057847 8.783165
-0.633080 -0.057874 8.787314
-0.617173 -0.057881 8.788414
-0.601260 -0.057888 8.789487
-0.585343 -0.057895 8.790547
-0.569420 -0.057902 8.791579
-0.553490 -0.057909 8.792571
-0.537556 -0.057915 8.793538
-0.521616 -0.057921 8.794472
-0.505671 -0.057927 8.795381
-0.489722 -0.057933 8.796267
-0.474151 -0.057985 8.804243
-0.458593 -0.058043 8.813032
-0.442708 -0.058062 8.815926
-0.427249 -0.058141 8.827852
-0.411226 -0.058146 8.828593
-0.395470 -0.058190 8.835368
-0.379908 -0.058269 8.847238
-0.364427 -0.058367 8.862133
-0.348629 -0.058421 8.870322
-0.332893 -0.058491 8.880960
-0.317024 -0.058543 8.888971
-0.301218 -0.058614 8.899699
-0.285281 -0.058666 8.907544
-0.269131 -0.058677 8.909302
-0.253258 -0.058755 8.921027
-0.237205 -0.058798 8.927582
-0.221211 -0.058863 8.937472
-0.205003 -0.058877 8.939631
-0.188879 -0.058920 8.946110
-0.172611 -0.058922 8.946407
-0.155964 -0.058781 8.924985
-0.139211 -0.058563 8.891896
-0.122882 -0.058489 8.880688
-0.090570 -0.049634 7.536215
-0.075963 -0.049054 7.448151
-0.062286 -0.048953 7.432735
-0.048669 -0.048855 7.417865
-0.035107 -0.048760 7.403440
-0.021577 -0.048618 7.381873
-0.008134 -0.048522 7.367377
0.005257 -0.048427 7.352886
0.018596 -0.048333 7.338600
0.031913 -0.048285 7.331362
0.045203 -0.048235 7.323860
0.058466 -0.048187 7.316530
0.071703 -0.048139 7.309182
0.084917 -0.048093 7.302236
0.098197 -0.048092 7.302039
0.111468 -0.048087 7.301283
0.124675 -0.048058 7.296956
0.137955 -0.048061 7.297335
0.151328 -0.048092 7.302099
0.164739 -0.048130 7.307821
0.178198 -0.048175 7.314615
0.191506 -0.048175 7.314727
0.204987 -0.048217 7.320999
0.218781 -0.048322 7.336983
0.232779 -0.048458 7.357610
0.254509 -0.050101 7.607079
0.317776 -0.059329 9.008303
0.332722 -0.059074 8.969489
0.348575 -0.058995 8.957602
0.364840 -0.058991 8.956915
0.381248 -0.059009 8.959626
0.397863 -0.059056 8.966784
0.414138 -0.059051 8.965998
0.430408 -0.059045 8.965186
0.446674 -0.059040 8.964350
0.462935 -0.059034 8.963473
0.479191 -0.059028 8.962583
0.495576 -0.059038 8.964056
0.512042 -0.059056 8.966864
0.528294 -0.059050 8.965868
0.544540 -0.059043 8.964843
0.561094 -0.059069 8.968787
0.577749 -0.059104 8.974086
0.593999 -0.059097 8.972969
0.610243 -0.059089 8.971823
0.626481 -0.059081 8.970648
0.642712 -0.059073 8.969442
0.659173 -0.059087 8.971431
0.676074 -0.059137 8.979155
0.692720 -0.059164 8.983220
0.708956 -0.059155 8.981894
0.724666 -0.059104 8.974115
0.739963 -0.059022 8.961678
0.756145 -0.059013 8.960267
0.772319 -0.059004 8.958827
0.788486 -0.058994 8.957356
0.804648 -0.058984 8.955889
0.820800 -0.058974 8.954379
0.836942 -0.058964 8.952821
0.853467 -0.058981 8.955336
0.870546 -0.059034 8.963467
0.887053 -0.059047 8.965506
0.903631 -0.059065 8.968184
0.919957 -0.059066 8.968309
0.936088 -0.059055 8.966573
0.953417 -0.059118 8.976156
0.969555 -0.059106 8.974405
0.986359 -0.059135 8.978770
1.002484 -0.059123 8.976916
1.019889 -0.059185 8.986394
1.036014 -0.059172 8.984479
1.052269 -0.059168 8.983728
1.068977 -0.059188 8.986810
1.085082 -0.059175 8.984809
1.101176 -0.059161 8.982779
1.117261 -0.059148 8.980729
1.133333 -0.059134 8.978641
1.149394 -0.059120 8.976524
1.165444 -0.059106 8.974379
1.181500 -0.059092 8.972339
1.197527 -0.059078 8.970140
1.213542 -0.059063 8.967914
1.229546 -0.059048 8.965659
1.247059 -0.059106 8.974334
1.263113 -0.059093 8.972413
1.277498 -0.059004 8.958835
1.295074 -0.059062 8.967697
1.311035 -0.059046 8.965301
1.327008 -0.059031 8.963033
1.342943 -0.059015 8.960579
1.358866 -0.058999 8.958097
1.375722 -0.059023 8.961753
1.391629 -0.059006 8.959213
1.407525 -0.058989 8.956663
1.425207 -0.059047 8.965408
1.441094 -0.059030 8.962787
1.457969 -0.059053 8.966305
1.473838 -0.059035 8.963627
1.490008 -0.059030 8.962811
1.507466 -0.059075 8.969683
1.524361 -0.059097 8.973091
1.540575 -0.059093 8.972463
1.558218 -0.059144 8.980086
1.575354 -0.059174 8.984653
1.593017 -0.059223 8.992105
1.610198 -0.059253 8.996713
1.627879 -0.059301 9.003989
1.645113 -0.059332 9.008677
1.662836 -0.059380 9.015922
1.679506 -0.059389 9.017374
1.697481 -0.059444 9.025731
1.714492 -0.059465 9.028856
1.730318 -0.059444 9.025743
1.748353 -0.059499 9.034099
1.764596 -0.059493 9.033128
1.781190 -0.059498 9.033953
1.799257 -0.059552 9.042166
1.815540 -0.059547 9.041345
1.832117 -0.059551 9.041988
1.847888 -0.059529 9.038683
1.863642 -0.059507 9.035351
1.880427 -0.059519 9.037031
1.897519 -0.059539 9.040144
1.914557 -0.059558 9.042953
1.930272 -0.059535 9.039515
1.947178 -0.059549 9.041665
1.964132 -0.059564 9.044001
1.981176 -0.059582 9.046706
1.998208 -0.059599 9.049316
2.015825 -0.059634 9.054511
2.033551 -0.059671 9.060108
2.051167 -0.059704 9.065125
2.067471 -0.059698 9.064314
2.085750 -0.059750 9.072104
2.102264 -0.059750 9.072156
2.118472 -0.059742 9.070895
2.135783 -0.059764 9.074342
2.152403 -0.059767 9.074820
2.169511 -0.059784 9.077334
2.185096 -0.059759 9.073488
2.202551 -0.059784 9.077405
2.219013 -0.059783 9.077202
2.236096 -0.059798 9.079524
2.254548 -0.059850 9.087327
2.271155 -0.059852 9.087637
2.287172 -0.059838 9.085599
2.305525 -0.059886 9.092801
2.322695 -0.059902 9.095268
2.340532 -0.059935 9.100294
2.357925 -0.059957 9.103538
2.373791 -0.059939 9.100880
2.392234 -0.059986 9.108069
2.409424 -0.060002 9.110424
2.427870 -0.060048 9.117460
2.445074 -0.060063 9.119772
2.460435 -0.060034 9.115222
2.479061 -0.060083 9.122751
2.496252 -0.060097 9.124933
2.514464 -0.060136 9.130793
2.530239 -0.060116 9.127783
2.547301 -0.060127 9.129426
2.565790 -0.060171 9.136132
2.582966 -0.060184 9.138102
2.601661 -0.060232 9.145389
2.618798 -0.060244 9.147141
2.637563 -0.060292 9.154522
-2.378728 -0.039102 8.142346
-2.366783 -0.039149 8.152215
-2.351414 -0.039140 8.150344
-2.337660 -0.039158 8.154081
-2.324025 -0.039178 8.158283
-2.310054 -0.039193 8.161353
-2.293799 -0.039169 8.156340
-2.279992 -0.039187 8.160024
-2.266155 -0.039204 8.163651
-2.250748 -0.039194 8.161630
-2.236885 -0.039212 8.165215
-2.223141 -0.039231 8.169289
-2.209240 -0.039248 8.172836
-2.195433 -0.039267 8.176783
-2.181517 -0.039284 8.180373
-2.167667 -0.039303 8.184263
-2.153718 -0.039320 8.187828
-2.139726 -0.039337 8.191279
-2.126207 -0.039362 8.196605
-2.113403 -0.039402 8.204779
-2.099470 -0.039420 8.208654
-2.087902 -0.039484 8.221899
-2.073880 -0.039502 8.225602
-2.060237 -0.039527 8.230873
-2.047986 -0.039579 8.241822
-2.035569 -0.039630 8.252262
-2.021919 -0.039656 8.257818
-2.009566 -0.039709 8.268794
-1.996943 -0.039757 8.278822
-1.984203 -0.039804 8.288508
-1.972310 -0.039868 8.301910
-1.958015 -0.039884 8.305328
-1.943671 -0.039900 8.308590
-1.930793 -0.039946 8.318219
-1.916435 -0.039962 8.321574
-1.903067 -0.040000 8.329318
-1.889936 -0.040042 8.338229
-1.875486 -0.040058 8.341420
-1.861042 -0.040073 8.344687
-1.846580 -0.040089 8.347929
-1.832102 -0.040104 8.351150
-1.817606 -0.040120 8.354346
-1.803073 -0.040135 8.357420
-1.789273 -0.040166 8.363974
-1.775336 -0.040195 8.369995
-1.760765 -0.040210 8.373103
-1.746177 -0.040225 8.376187
-1.733630 -0.040287 8.389199
-1.719772 -0.040320 8.396046
-1.706883 -0.040376 8.407784
-1.692973 -0.040409 8.414661
-1.680815 -0.040485 8.430452
-1.667588 -0.040536 8.441122
-1.654561 -0.040594 8.453014
-1.640408 -0.040624 8.459321
-1.626798 -0.040668 8.468575
-1.613851 -0.040730 8.481488
-1.599820 -0.040766 8.488898
-1.585244 -0.040788 8.493532
-1.572198 -0.040851 8.506540
-1.557232 -0.040864 8.509314
-1.542252 -0.040877 8.512061
-1.527250 -0.040890 8.514744
-1.512241 -0.040903 8.517443
-1.498344 -0.040947 8.526526
-1.483295 -0.040959 8.529177
-1.468208 -0.040971 8.531659
-1.453131 -0.040984 8.534257
-1.438041 -0.040996 8.536830
-1.422936 -0.041008 8.539376
-1.407819 -0.041020 8.541897
-1.392688 -0.041032 8.544393
-1.377541 -0.041044 8.546844
-1.362384 -0.041056 8.549290
-1.347214 -0.041068 8.551709
-1.333632 -0.041128 8.564382
-1.318395 -0.041139 8.566601
-1.303168 -0.041150 8.568943
-1.288877 -0.041192 8.577566
-1.273636 -0.041203 8.579997
-1.258361 -0.041214 8.582261
-1.243073 -0.041225 8.584497
-1.227774 -0.041236 8.586707
-1.213921 -0.041296 8.599214
-1.198579 -0.041306 8.601372
-1.183227 -0.041316 8.603504
-1.167845 -0.041326 8.605481
-1.152471 -0.041336 8.607563
-1.136944 -0.041341 8.608550
-1.120342 -0.041306 8.601306
-1.104950 -0.041315 8.603285
-1.089551 -0.041325 8.605263
-1.074017 -0.041329 8.606213
-1.057705 -0.041304 8.600872
-1.041245 -0.041271 8.594140
-1.025834 -0.041280 8.595996
-1.010412 -0.041289 8.597824
-0.994981 -0.041298 8.599625
-0.979366 -0.041299 8.599864
-0.963359 -0.041283 8.596619
-0.948092 -0.041299 8.599973
-0.933156 -0.041331 8.606495
-0.917678 -0.041339 8.608157
-0.903269 -0.041396 8.620086
-0.887958 -0.041413 8.623662
-0.873220 -0.041458 8.633037
-0.858376 -0.041500 8.641691
-0.843785 -0.041555 8.653263
-0.829060 -0.041606 8.663871
-0.814813 -0.041684 8.679982
-0.800122 -0.041741 8.691912
-0.785257 -0.041791 8.702385
-0.770827 -0.041867 8.718216
