ply
format ascii 1.0
comment generated by convert_depth_to_ply.py
element vertex 1737
property float x
property float y
property float z
end_header
0.171295 -0.003814 1.555288
0.177382 -0.003793 1.547053
0.184274 -0.003791 1.546190
0.191618 -0.003798 1.549046
0.198931 -0.003804 1.551460
0.206163 -0.003808 1.553097
0.213486 -0.003814 1.555293
0.220824 -0.003819 1.557453
0.227844 -0.003818 1.557305
0.234302 -0.003809 1.553437
0.241307 -0.003809 1.553323
0.248464 -0.003811 1.554157
0.255853 -0.003816 1.556364
0.263266 -0.003822 1.558591
0.270961 -0.003831 1.562328
0.278415 -0.003836 1.564521
0.286159 -0.003845 1.568198
0.293940 -0.003854 1.571890
0.301746 -0.003863 1.575543
0.309678 -0.003873 1.579666
0.317443 -0.003881 1.582771
0.325338 -0.003890 1.586373
0.333256 -0.003898 1.589934
0.341203 -0.003907 1.593477
0.349523 -0.003920 1.598578
0.357558 -0.003929 1.602194
0.366081 -0.003942 1.607813
0.374444 -0.003954 1.612522
0.382850 -0.003965 1.617237
0.391369 -0.003978 1.622239
0.399987 -0.003990 1.627461
0.408844 -0.004005 1.633448
0.417555 -0.004018 1.638652
0.425897 -0.004027 1.642250
0.434333 -0.004036 1.646083
0.442537 -0.004043 1.648922
0.449726 -0.004041 1.647945
0.457659 -0.004045 1.649685
0.468490 -0.004074 1.661644
0.478131 -0.004093 1.669075
0.488487 -0.004116 1.678732
0.497890 -0.004131 1.684866
0.524240 -0.004284 1.747301
0.548624 -0.004417 1.801427
0.558031 -0.004427 1.805513
0.565078 -0.004418 1.801953
0.570655 -0.004399 1.793875
0.571126 -0.004340 1.770194
0.503660 -0.003775 1.539513
0.508042 -0.003756 1.531738
0.513711 -0.003747 1.528000
0.519878 -0.003741 1.525824
0.526478 -0.003739 1.524960
0.533183 -0.003738 1.524418
0.540315 -0.003739 1.525095
-0.402312 0.002210 1.103457
-0.397935 0.002213 1.105159
-0.394107 0.002220 1.108446
-0.390415 0.002227 1.112203
-0.386711 0.002235 1.116026
-0.382881 0.002242 1.119583
-0.379235 0.002250 1.123776
-0.375636 0.002259 1.128229
-0.371599 0.002266 1.131468
-0.367559 0.002272 1.134789
-0.363480 0.002279 1.138082
-0.359539 0.002287 1.141906
-0.355591 0.002294 1.145822
-0.351656 0.002303 1.149894
-0.347522 0.002310 1.153428
-0.343431 0.002317 1.157217
-0.339498 0.002326 1.161661
-0.335489 0.002335 1.165981
-0.331387 0.002343 1.170111
-0.327523 0.002353 1.175229
-0.323478 0.002363 1.179854
-0.319505 0.002373 1.184904
-0.315554 0.002383 1.190210
-0.311443 0.002393 1.195083
-0.307338 0.002403 1.200152
-0.303330 0.002415 1.205789
-0.298929 0.002423 1.210043
-0.294522 0.002432 1.214432
-0.289388 0.002435 1.215928
-0.378965 0.003250 1.623141
-0.395025 0.003455 1.725338
-0.387804 0.003460 1.727921
-0.380775 0.003467 1.731481
-0.373664 0.003474 1.734815
-0.366293 0.003478 1.737054
-0.358978 0.003484 1.739666
-0.351610 0.003488 1.742131
-0.344182 0.003493 1.744403
-0.336907 0.003499 1.747576
-0.329600 0.003506 1.750734
-0.322095 0.003510 1.752968
-0.314763 0.003517 1.756279
-0.307531 0.003525 1.760333
-0.300191 0.003532 1.763972
-0.292695 0.003538 1.766862
-0.285063 0.003542 1.769073
-0.277323 0.003546 1.770726
-0.270016 0.003555 1.775319
-0.262580 0.003563 1.779321
-0.227468 0.003184 1.590111
-0.203276 0.002938 1.467374
-0.190373 0.002845 1.420591
-0.178865 0.002766 1.381321
-0.169101 0.002710 1.353163
-0.162202 0.002697 1.346683
-0.156108 0.002697 1.346632
-0.150333 0.002702 1.349451
-0.144562 0.002708 1.352538
-0.138615 0.002712 1.354182
-0.132646 0.002715 1.355754
-0.158265 0.003396 1.695966
-0.159483 0.003596 1.796035
-0.151643 0.003603 1.799369
-0.143819 0.003611 1.803268
-0.135998 0.003620 1.807678
-0.128084 0.003627 1.811345
-0.119960 0.003629 1.812329
-0.111907 0.003634 1.814610
-0.103924 0.003641 1.818482
-0.095843 0.003647 1.821170
-0.087724 0.003652 1.823549
-0.072703 0.003340 1.668088
-0.057198 0.002932 1.464221
-0.050209 0.002911 1.453553
-0.043368 0.002893 1.444586
-0.036662 0.002879 1.437734
-0.030059 0.002869 1.432819
-0.023522 0.002862 1.429235
-0.017030 0.002857 1.426754
-0.010568 0.002854 1.425178
-0.004120 0.002851 1.423805
0.002317 0.002851 1.423531
0.008750 0.002849 1.422999
0.015184 0.002850 1.423104
0.021629 0.002851 1.423794
0.028095 0.002854 1.425250
0.034589 0.002858 1.427320
0.041104 0.002862 1.429471
0.047683 0.002869 1.432949
0.054288 0.002876 1.436288
0.060943 0.002884 1.440104
0.067623 0.002891 1.443706
0.074401 0.002901 1.448593
0.081265 0.002912 1.454230
0.088117 0.002921 1.458814
0.095134 0.002934 1.465299
0.102270 0.002949 1.472664
0.112284 0.003040 1.518030
0.129642 0.003307 1.651733
0.135737 0.003274 1.635198
0.141814 0.003244 1.620162
0.147834 0.003216 1.605984
0.153776 0.003189 1.592321
0.159658 0.003162 1.579299
0.165507 0.003138 1.567064
0.171419 0.003117 1.556416
0.177581 0.003101 1.548790
0.184644 0.003102 1.549297
0.191934 0.003107 1.551602
0.199251 0.003112 1.553954
0.206585 0.003116 1.556281
0.213909 0.003121 1.558370
0.221181 0.003124 1.559973
0.227983 0.003120 1.558257
0.234297 0.003111 1.553409
0.241392 0.003112 1.553869
0.248604 0.003114 1.555036
0.256074 0.003119 1.557709
0.263411 0.003123 1.559452
0.271022 0.003129 1.562681
0.278682 0.003136 1.566021
0.286323 0.003142 1.569094
0.294102 0.003149 1.572758
0.302036 0.003158 1.577054
0.309879 0.003165 1.580692
0.317747 0.003172 1.584290
0.325650 0.003180 1.587895
0.333576 0.003187 1.591460
0.341531 0.003194 1.595006
0.349716 0.003203 1.599461
0.357918 0.003212 1.603809
0.366369 0.003222 1.609080
0.374867 0.003233 1.614346
0.383414 0.003243 1.619616
0.391775 0.003252 1.623920
0.400614 0.003264 1.630010
0.409278 0.003274 1.635182
0.418200 0.003286 1.641184
0.426552 0.003294 1.644777
0.434983 0.003301 1.648547
0.442720 0.003303 1.649603
0.450007 0.003302 1.648976
0.459558 0.003317 1.656527
0.469042 0.003331 1.663604
0.478198 0.003343 1.669310
0.488235 0.003360 1.677866
0.497876 0.003374 1.684820
0.513993 0.003430 1.713148
0.549392 0.003612 1.803950
0.557642 0.003613 1.804254
0.564493 0.003605 1.800086
0.570003 0.003588 1.791823
0.515095 0.003197 1.596527
0.504145 0.003086 1.540994
0.507778 0.003066 1.530941
0.513201 0.003057 1.526483
0.519362 0.003052 1.524310
0.526021 0.003051 1.523636
0.532681 0.003050 1.522983
0.540021 0.003052 1.524264
-0.401802 0.007116 1.102059
-0.397404 0.007126 1.103682
-0.393639 0.007149 1.107128
-0.390013 0.007174 1.111059
-0.386279 0.007198 1.114781
-0.382554 0.007223 1.118627
-0.378779 0.007247 1.122426
-0.375257 0.007277 1.127089
-0.371147 0.007297 1.130091
-0.367281 0.007322 1.133930
-0.363083 0.007340 1.136838
-0.359179 0.007366 1.140764
-0.354969 0.007385 1.143817
-0.351164 0.007414 1.148285
-0.347008 0.007436 1.151721
-0.342962 0.007462 1.155636
-0.338889 0.007487 1.159577
-0.335060 0.007519 1.164492
-0.330917 0.007544 1.168451
-0.327058 0.007577 1.173562
-0.323142 0.007610 1.178632
-0.319181 0.007643 1.183705
-0.315197 0.007676 1.188861
-0.310870 0.007702 1.192883
-0.307027 0.007741 1.198937
-0.302944 0.007776 1.204255
-0.298589 0.007804 1.208665
-0.294015 0.007828 1.212338
-0.289622 0.007857 1.216914
-0.304275 0.008415 1.303238
-0.394891 0.011136 1.724752
-0.387717 0.011154 1.727534
-0.380761 0.011179 1.731417
-0.373651 0.011201 1.734751
-0.366467 0.011221 1.737877
-0.358965 0.011232 1.739601
-0.351405 0.011242 1.741113
-0.344169 0.011263 1.744338
-0.337004 0.011287 1.748081
-0.329745 0.011309 1.751501
-0.322249 0.011324 1.753806
-0.314873 0.011344 1.756895
-0.307738 0.011374 1.761517
-0.300473 0.011400 1.765629
-0.293086 0.011424 1.769224
-0.285331 0.011433 1.770736
-0.277520 0.011441 1.771983
-0.269835 0.011455 1.774133
-0.261872 0.011458 1.774527
-0.227802 0.010282 1.592441
-0.203467 0.009483 1.468753
-0.190601 0.009184 1.422299
-0.179024 0.008927 1.382548
-0.169109 0.008738 1.353228
-0.162205 0.008695 1.346706
-0.156246 0.008703 1.347823
-0.150466 0.008721 1.350641
-0.144680 0.008740 1.353640
-0.138778 0.008754 1.355777
-0.132771 0.008762 1.357027
-0.155698 0.010773 1.668458
-0.159202 0.011576 1.792879
-0.151495 0.011607 1.797604
-0.143786 0.011641 1.802857
-0.135993 0.011671 1.807608
-0.127986 0.011687 1.809954
-0.119954 0.011701 1.812235
-0.111902 0.011716 1.814540
-0.103849 0.011733 1.817169
-0.095393 0.011704 1.812618
-0.079118 0.010619 1.644653
-0.063720 0.009440 1.461966
-0.056767 0.009383 1.453186
-0.049871 0.009322 1.443754
-0.043091 0.009268 1.435343
-0.036450 0.009229 1.429419
-0.029893 0.009200 1.424908
-0.023392 0.009177 1.421353
-0.016935 0.009161 1.418780
-0.010509 0.009151 1.417235
-0.004098 0.009143 1.416077
0.002305 0.009143 1.416066
0.008707 0.009143 1.416025
0.015108 0.009143 1.415982
0.021532 0.009152 1.417392
0.027971 0.009162 1.418978
0.034426 0.009172 1.420592
0.040931 0.009191 1.423457
0.047463 0.009210 1.426355
0.054021 0.009228 1.429228
0.060612 0.009248 1.432288
0.067225 0.009267 1.435210
0.073997 0.009303 1.440730
0.080746 0.009330 1.444925
0.087616 0.009366 1.450521
0.094445 0.009393 1.454684
0.101496 0.009437 1.461515
0.108783 0.009496 1.470693
0.122147 0.010048 1.556248
0.135752 0.010559 1.635376
0.141885 0.010466 1.620968
0.147780 0.010366 1.605393
0.153759 0.010280 1.592152
0.159682 0.010199 1.579538
0.165500 0.010118 1.567005
0.171412 0.010049 1.556357
0.177748 0.010010 1.550244
0.184942 0.010020 1.551794
0.192270 0.010036 1.554322
0.199587 0.010051 1.556576
0.206803 0.010059 1.557919
0.214196 0.010076 1.560468
0.221397 0.010082 1.561496
0.228054 0.010064 1.558740
0.234289 0.010030 1.553350
0.241383 0.010033 1.553810
0.248682 0.010044 1.555521
0.256089 0.010058 1.557798
0.263680 0.010079 1.561042
0.271211 0.010097 1.563768
0.278715 0.010113 1.566210
0.286423 0.010135 1.569644
0.294211 0.010159 1.573339
0.302024 0.010182 1.576995
0.309902 0.010207 1.580809
0.318046 0.010239 1.585778
0.325956 0.010262 1.589388
0.333890 0.010285 1.592956
0.341852 0.010308 1.596505
0.350121 0.010339 1.601312
0.358272 0.010366 1.605394
0.366626 0.010397 1.610206
0.375079 0.010429 1.615258
0.383864 0.010470 1.621518
0.392165 0.010496 1.625536
0.400847 0.010531 1.630960
0.409572 0.010566 1.636356
0.418738 0.010610 1.643294
0.427055 0.010633 1.646717
0.435270 0.010651 1.649632
0.442704 0.010651 1.649544
0.450729 0.010664 1.651621
0.459728 0.010700 1.657142
0.469434 0.010751 1.664993
0.478613 0.010788 1.670756
0.487915 0.010827 1.676767
0.496959 0.010859 1.681715
0.509359 0.010962 1.697702
0.549619 0.011653 1.804695
0.556616 0.011628 1.800934
0.562940 0.011591 1.795135
0.568032 0.011529 1.785628
0.505483 0.010116 1.566736
0.505260 0.009972 1.544403
0.507578 0.009881 1.530338
0.512748 0.009848 1.525137
0.518864 0.009833 1.522850
0.525490 0.009828 1.522097
0.532577 0.009832 1.522684
0.539799 0.009838 1.523636
-0.401100 0.012004 1.100134
-0.396938 0.012028 1.102390
-0.392920 0.012058 1.105107
-0.389567 0.012109 1.109789
-0.385849 0.012150 1.113540
-0.381945 0.012186 1.116846
-0.378337 0.012233 1.121116
-0.374514 0.012274 1.124857
-0.370722 0.012317 1.128798
-0.366743 0.012354 1.132268
-0.362791 0.012394 1.135924
-0.358805 0.012434 1.139576
-0.354843 0.012476 1.143410
-0.350778 0.012515 1.147024
-0.346614 0.012552 1.150414
-0.342566 0.012595 1.154301
-0.338496 0.012638 1.158231
-0.334715 0.012693 1.163292
-0.330576 0.012736 1.167246
-0.326721 0.012792 1.172352
-0.322775 0.012846 1.177291
-0.318827 0.012901 1.182389
-0.314831 0.012957 1.187482
-0.310504 0.013000 1.191478
-0.306675 0.013067 1.197565
-0.302587 0.013124 1.202836
-0.298242 0.013173 1.207262
-0.293647 0.013212 1.210821
-0.289322 0.013264 1.215651
-0.289603 0.013534 1.240395
-0.395949 0.018870 1.729374
-0.387725 0.018850 1.727569
-0.380739 0.018891 1.731320
-0.373683 0.018930 1.734902
-0.366479 0.018963 1.737935
-0.358945 0.018980 1.739503
-0.351723 0.019015 1.742688
-0.344179 0.019033 1.744385
-0.336985 0.019073 1.747982
-0.329770 0.019112 1.751633
-0.322456 0.019148 1.754931
-0.314870 0.019170 1.756875
-0.307752 0.019221 1.761600
-0.300456 0.019264 1.765528
-0.293138 0.019308 1.769535
-0.285626 0.019341 1.772567
-0.277712 0.019348 1.773206
-0.269412 0.019328 1.771346
-0.261488 0.019334 1.771921
-0.234405 0.017879 1.638604
-0.204058 0.016072 1.473018
-0.191004 0.015552 1.425300
-0.179211 0.015101 1.383992
-0.169252 0.014778 1.354371
-0.162354 0.014708 1.347943
-0.156494 0.014730 1.349963
-0.150613 0.014752 1.351959
-0.144725 0.014774 1.354062
-0.138924 0.014809 1.357204
-0.133028 0.014835 1.359650
-0.151929 0.017764 1.628071
-0.159069 0.019546 1.791375
-0.151485 0.019613 1.797491
-0.143724 0.019663 1.802080
-0.135852 0.019703 1.805738
-0.127853 0.019728 1.808081
-0.119831 0.019753 1.810384
-0.111808 0.019782 1.813010
-0.103807 0.019820 1.816450
-0.093597 0.019405 1.778488
-0.070612 0.016016 1.467837
-0.063493 0.015895 1.456778
-0.056409 0.015756 1.444023
-0.049573 0.015659 1.435145
-0.042860 0.015578 1.427667
-0.036255 0.015513 1.421774
-0.029736 0.015466 1.417440
-0.023278 0.015433 1.414451
-0.016863 0.015415 1.412792
-0.010465 0.015399 1.411259
-0.004084 0.015399 1.411276
0.002297 0.015399 1.411265
0.008677 0.015398 1.411225
0.015057 0.015398 1.411183
0.021456 0.015411 1.412436
0.027879 0.015432 1.414295
0.034313 0.015449 1.415928
0.040760 0.015467 1.417493
0.047263 0.015498 1.420340
0.053790 0.015528 1.423129
0.060348 0.015560 1.426039
0.066985 0.015604 1.430089
0.073666 0.015650 1.434282
0.080384 0.015695 1.438458
0.087139 0.015741 1.442619
0.094012 0.015800 1.448014
0.100956 0.015862 1.453738
0.108116 0.015949 1.461675
0.115722 0.016087 1.474384
0.134095 0.017626 1.615414
0.141762 0.017671 1.619569
0.147934 0.017535 1.607066
0.153911 0.017389 1.593723
0.159799 0.017247 1.580689
0.165491 0.017097 1.566913
0.171397 0.016980 1.556223
0.177564 0.016898 1.548640
0.184952 0.016933 1.551881
0.192452 0.016976 1.555792
0.199971 0.017017 1.559569
0.207411 0.017049 1.562499
0.214672 0.017064 1.563930
0.221626 0.017055 1.563109
0.228041 0.017007 1.558649
0.234426 0.016959 1.554263
0.241516 0.016963 1.554665
0.248910 0.016988 1.556951
0.256303 0.017012 1.559100
0.263751 0.017037 1.561462
0.271195 0.017062 1.563679
0.278928 0.017102 1.567403
0.286408 0.017126 1.569563
0.294194 0.017166 1.573249
0.302007 0.017206 1.576905
0.310153 0.017262 1.582088
0.318028 0.017302 1.585689
0.326256 0.017358 1.590851
0.334215 0.017398 1.594508
0.342194 0.017437 1.598104
0.350510 0.017492 1.603091
0.358645 0.017535 1.607065
0.366981 0.017586 1.611766
0.375424 0.017641 1.616745
0.384273 0.017712 1.623244
0.392858 0.017768 1.628410
0.401245 0.017813 1.632579
0.410134 0.017879 1.638602
0.419124 0.017947 1.644809
0.427506 0.017987 1.648455
0.435851 0.018024 1.651836
0.443112 0.018015 1.651065
0.451208 0.018040 1.653375
0.460152 0.018098 1.658670
0.469583 0.018173 1.665522
0.478852 0.018239 1.671590
0.487891 0.018295 1.676683
0.496860 0.018346 1.681382
0.505946 0.018400 1.686329
0.548445 0.019649 1.800840
0.555583 0.019614 1.797593
0.562751 0.019581 1.794532
0.525860 0.018037 1.653060
0.506435 0.017127 1.569686
0.506571 0.016895 1.548410
0.507500 0.016695 1.530102
0.512597 0.016636 1.524686
0.518303 0.016598 1.521203
0.524949 0.016591 1.520531
0.532029 0.016597 1.521118
0.539709 0.016622 1.523383
-0.400847 0.016894 1.099440
-0.396548 0.016922 1.101305
-0.392810 0.016976 1.104797
-0.388831 0.017020 1.107692
-0.385199 0.017081 1.111664
-0.381545 0.017143 1.115676
-0.377915 0.017207 1.119864
-0.374118 0.017266 1.123670
-0.370305 0.017325 1.127526
-0.366282 0.017376 1.130847
-0.362381 0.017434 1.134640
-0.358429 0.017492 1.138382
-0.354526 0.017553 1.142389
-0.350570 0.017614 1.146344
-0.346574 0.017675 1.150283
-0.342429 0.017729 1.153840
-0.338471 0.017796 1.158146
-0.334565 0.017867 1.162771
-0.330551 0.017934 1.167161
-0.326413 0.017997 1.171247
-0.322470 0.018073 1.176180
-0.318517 0.018150 1.181242
-0.314457 0.018225 1.186069
-0.310177 0.018289 1.190227
-0.306273 0.018377 1.195994
-0.302269 0.018463 1.201572
-0.297946 0.018532 1.206064
-0.293372 0.018588 1.209686
-0.288747 0.018642 1.213235
-0.283061 0.018629 1.212374
-0.394804 0.026496 1.724374
-0.387371 0.026521 1.725990
-0.380534 0.026588 1.730388
-0.373655 0.026656 1.734771
-0.366451 0.026702 1.737803
-0.358917 0.026726 1.739370
-0.351471 0.026758 1.741442
-0.344136 0.026800 1.744169
-0.336959 0.026857 1.747848
-0.329866 0.026923 1.752145
-0.322206 0.026945 1.753571
-0.314958 0.027003 1.757366
-0.307761 0.027069 1.761652
-0.300726 0.027153 1.767116
-0.293484 0.027222 1.771624
-0.286795 0.027348 1.779823
-0.277538 0.027229 1.772096
-0.267631 0.027038 1.759638
-0.258716 0.026938 1.753142
-0.242276 0.026024 1.693624
-0.205101 0.022750 1.480550
-0.191530 0.021961 1.429226
-0.179601 0.021312 1.387005
-0.169310 0.020818 1.354841
-0.162500 0.020731 1.349154
-0.156575 0.020754 1.350665
-0.150712 0.020787 1.352856
-0.144887 0.020829 1.355577
-0.138977 0.020862 1.357718
-0.133234 0.020924 1.361759
-0.149906 0.024683 1.606398
-0.159317 0.027569 1.794174
-0.151266 0.027580 1.794893
-0.143573 0.027661 1.800179
-0.135709 0.027717 1.803833
-0.127812 0.027773 1.807492
-0.119821 0.027815 1.810230
-0.111640 0.027816 1.810282
-0.106153 0.028542 1.857500
-0.077747 0.022700 1.477310
-0.070283 0.022449 1.460998
-0.063146 0.022262 1.448812
-0.056149 0.022086 1.437367
-0.049345 0.021950 1.428530
-0.042677 0.021843 1.421576
-0.036089 0.021746 1.415240
-0.029610 0.021688 1.411434
-0.023180 0.021642 1.408458
-0.016792 0.021617 1.406833
-0.010430 0.021614 1.406652
-0.004067 0.021593 1.405297
0.002287 0.021593 1.405285
0.008640 0.021592 1.405246
0.015008 0.021612 1.406550
0.021386 0.021632 1.407826
0.027771 0.021647 1.408809
0.034176 0.021670 1.410295
0.040626 0.021709 1.412827
0.047085 0.021742 1.414996
0.053565 0.021776 1.417171
0.060092 0.021819 1.419997
0.066647 0.021863 1.422869
0.073328 0.021937 1.427696
0.079975 0.021990 1.431128
0.086695 0.022054 1.435268
0.093539 0.022138 1.440725
0.100440 0.022223 1.446313
0.107551 0.022342 1.454038
0.114878 0.022490 1.463636
0.122325 0.022643 1.473627
0.141931 0.024915 1.621504
0.148055 0.024714 1.608381
0.154022 0.024506 1.594876
0.159800 0.024288 1.580700
0.165477 0.024075 1.566785
0.171222 0.023888 1.554625
0.177227 0.023751 1.545698
0.184334 0.023766 1.546690
0.191753 0.023819 1.550135
0.199143 0.023865 1.553113
0.206633 0.023919 1.556641
0.214216 0.023980 1.560613
0.221406 0.023994 1.561555
0.228023 0.023948 1.558528
0.234311 0.023870 1.553500
0.241497 0.023887 1.554544
0.248891 0.023922 1.556831
0.256295 0.023956 1.559053
0.263731 0.023991 1.561342
0.271174 0.024025 1.563558
0.278686 0.024063 1.566044
0.286390 0.024116 1.569461
0.294171 0.024172 1.573129
0.301984 0.024228 1.576785
0.310084 0.024304 1.581738
0.318004 0.024363 1.585568
0.326231 0.024443 1.590729
0.334498 0.024521 1.595859
0.342475 0.024576 1.599415
0.350808 0.024653 1.604453
0.358870 0.024709 1.608074
0.367294 0.024787 1.613141
0.375763 0.024865 1.618203
0.384615 0.024964 1.624689
0.393212 0.025044 1.629878
0.401825 0.025122 1.634938
0.410475 0.025199 1.639967
0.419155 0.025275 1.644932
0.427474 0.025328 1.648333
0.435819 0.025380 1.651713
0.443513 0.025393 1.652555
0.451253 0.025408 1.653542
0.460552 0.025509 1.660113
0.469677 0.025597 1.665854
0.479284 0.025708 1.673101
0.488633 0.025802 1.679232
0.497310 0.025859 1.682902
0.505500 0.025889 1.684842
0.547243 0.027610 1.796894
0.554629 0.027574 1.794505
0.562210 0.027548 1.792807
0.505591 0.024421 1.589341
0.508196 0.024203 1.575143
0.509451 0.023928 1.557213
0.507134 0.023494 1.529000
0.512118 0.023406 1.523263
0.518267 0.023373 1.521095
0.524912 0.023362 1.520423
0.531825 0.023364 1.520535
0.539205 0.023386 1.521962
-0.400645 0.021780 1.098887
-0.396200 0.021809 1.100339
-0.392196 0.021863 1.103071
-0.388417 0.021931 1.106512
-0.384789 0.022010 1.110480
-0.381139 0.022089 1.114488
-0.377486 0.022171 1.118594
-0.373717 0.022247 1.122465
-0.369890 0.022323 1.126263
-0.365968 0.022394 1.129876
-0.362122 0.022472 1.133830
-0.358397 0.022561 1.138279
-0.354438 0.022637 1.142107
-0.350268 0.022701 1.145357
-0.346542 0.022797 1.150177
-0.342218 0.022855 1.153129
-0.338427 0.022951 1.157997
-0.334333 0.023030 1.161964
-0.330245 0.023112 1.166079
-0.326348 0.023209 1.171013
-0.322229 0.023294 1.175301
-0.318177 0.023387 1.179980
-0.314077 0.023479 1.184637
-0.309846 0.023565 1.188954
-0.306060 0.023688 1.195162
-0.301946 0.023790 1.200287
-0.297530 0.023871 1.204379
-0.293058 0.023950 1.208392
-0.288537 0.024029 1.212352
-0.283254 0.024046 1.213202
-0.389589 0.033726 1.701594
-0.387332 0.034206 1.725816
-0.380302 0.034275 1.729334
-0.373566 0.034375 1.734357
-0.366225 0.034422 1.736730
-0.358883 0.034471 1.739204
-0.351548 0.034523 1.741821
-0.344090 0.034565 1.743939
-0.336855 0.034632 1.747309
-0.329696 0.034710 1.751245
-0.322490 0.034786 1.755115
-0.315108 0.034848 1.758206
-0.307534 0.034890 1.760348
-0.299391 0.034869 1.759268
-0.290694 0.034780 1.754786
-0.280021 0.034443 1.737785
-0.269082 0.034053 1.718103
-0.261001 0.034012 1.716044
-0.252650 0.033932 1.712034
-0.239966 0.033248 1.677474
-0.206170 0.029497 1.488263
-0.192161 0.028421 1.433937
-0.179887 0.027534 1.389213
-0.169499 0.026883 1.356348
-0.162484 0.026738 1.349022
-0.156676 0.026787 1.351534
-0.150939 0.026854 1.354887
-0.145102 0.026907 1.357592
-0.139264 0.026965 1.360519
-0.133473 0.027039 1.364204
-0.147706 0.031371 1.582818
-0.159145 0.035522 1.792236
-0.151309 0.035585 1.795403
-0.143558 0.035676 1.800001
-0.135563 0.035714 1.801894
-0.127674 0.035786 1.805549
-0.119691 0.035840 1.808267
-0.111803 0.035932 1.812932
-0.089515 0.031045 1.566359
-0.077297 0.029111 1.468763
-0.069937 0.028814 1.453809
-0.062789 0.028553 1.440610
-0.055884 0.028354 1.430586
-0.049116 0.028182 1.421907
-0.042493 0.028054 1.415425
-0.035948 0.027941 1.409742
-0.029513 0.027883 1.406799
-0.023104 0.027824 1.403833
-0.016734 0.027787 1.401986
-0.010386 0.027761 1.400664
-0.004053 0.027761 1.400681
0.002280 0.027761 1.400670
0.008612 0.027760 1.400630
0.014958 0.027786 1.401930
0.021316 0.027811 1.403202
0.027671 0.027822 1.403757
0.034058 0.027856 1.405426
0.040454 0.027884 1.406852
0.046908 0.027940 1.409678
0.053374 0.027988 1.412117
0.059855 0.028033 1.414388
0.066425 0.028107 1.418129
0.073000 0.028170 1.421308
0.079634 0.028244 1.425036
0.086326 0.028326 1.429158
0.093082 0.028416 1.433689
0.100013 0.028544 1.440156
0.107003 0.028672 1.446628
0.114295 0.028862 1.456210
0.121852 0.029094 1.467925
0.137155 0.031057 1.566934
0.148106 0.031889 1.608941
0.154009 0.031608 1.594743
0.159794 0.031328 1.580638
0.165460 0.031050 1.566622
0.171205 0.030810 1.554473
0.177103 0.030614 1.544616
0.183940 0.030590 1.543392
0.191132 0.030624 1.545118
0.198436 0.030673 1.547599
0.205761 0.030722 1.550067
0.213036 0.030761 1.552017
0.220343 0.030801 1.554059
0.227444 0.030812 1.554572
0.234143 0.030768 1.552383
0.241269 0.030782 1.553077
0.248624 0.030823 1.555161
0.256030 0.030868 1.557437
0.263705 0.030943 1.561191
0.271360 0.031011 1.564629
0.278913 0.031064 1.567321
0.286637 0.031134 1.570816
0.294431 0.031207 1.574514
0.302250 0.031279 1.578174
0.310099 0.031352 1.581815
0.318284 0.031454 1.586964
0.326407 0.031545 1.591588
0.334194 0.031601 1.594407
0.342442 0.031697 1.599263
0.350793 0.031799 1.604384
0.359086 0.031891 1.609044
0.367358 0.031978 1.613421
0.375970 0.032090 1.619093
0.384604 0.032200 1.624642
0.393227 0.032305 1.629939
0.401933 0.032413 1.635379
0.410681 0.032520 1.640790
0.419526 0.032631 1.646386
0.427852 0.032699 1.649790
0.436156 0.032762 1.652992
0.444062 0.032794 1.654604
0.451711 0.032806 1.655218
0.460525 0.032901 1.660016
0.469964 0.033037 1.666873
0.479628 0.033185 1.674302
0.488941 0.033303 1.680290
0.498234 0.033417 1.686029
0.507335 0.033515 1.690957
0.538350 0.035036 1.767693
0.552055 0.035402 1.786176
0.569561 0.035998 1.816248
0.504884 0.031457 1.587121
0.508953 0.031266 1.577490
0.510502 0.030928 1.560424
0.506556 0.030270 1.527258
0.511573 0.030159 1.521640
0.518220 0.030145 1.520960
0.524731 0.030124 1.519899
0.531511 0.030119 1.519637
0.539220 0.030166 1.522004
-0.399854 0.026622 1.096716
-0.395697 0.026676 1.098943
-0.391692 0.026742 1.101652
-0.387996 0.026831 1.105314
-0.384283 0.026921 1.109020
-0.380742 0.027025 1.113326
-0.377043 0.027121 1.117280
-0.373309 0.027217 1.121240
-0.369468 0.027308 1.124980
-0.365571 0.027397 1.128650
-0.361563 0.027480 1.132078
-0.358008 0.027601 1.137043
-0.354109 0.027698 1.141045
-0.350158 0.027794 1.144995
-0.346166 0.027890 1.148928
-0.342180 0.027988 1.153002
-0.338072 0.028080 1.156782
-0.333988 0.028177 1.160763
-0.329973 0.028283 1.165119
-0.325753 0.028374 1.168879
-0.321777 0.028490 1.173651
-0.317831 0.028612 1.178696
-0.313841 0.028735 1.183749
-0.309528 0.028832 1.187735
-0.305727 0.028980 1.193861
-0.301617 0.029104 1.198980
-0.297303 0.029213 1.203461
-0.292738 0.029301 1.207075
-0.288125 0.029387 1.210621
-0.283444 0.029469 1.214014
-0.332778 0.035282 1.453462
-0.386828 0.041839 1.723574
-0.380569 0.042008 1.730545
-0.373523 0.042096 1.734158
-0.366374 0.042175 1.737438
-0.358842 0.042213 1.739004
-0.351627 0.042291 1.742215
-0.344081 0.042332 1.743888
-0.336787 0.042406 1.746955
-0.329332 0.042463 1.749310
-0.320446 0.042334 1.743992
-0.311488 0.042189 1.738007
-0.303333 0.042148 1.736306
-0.295874 0.042204 1.738603
-0.287989 0.042200 1.738454
-0.277270 0.041769 1.720713
-0.268586 0.041629 1.714936
-0.260184 0.041526 1.710675
-0.251572 0.041381 1.704728
-0.240462 0.040804 1.680943
-0.206875 0.036250 1.493352
-0.192814 0.034926 1.438811
-0.180137 0.033769 1.391145
-0.169548 0.032934 1.356741
-0.162602 0.032770 1.350003
-0.156745 0.032822 1.352134
-0.151010 0.032905 1.355525
-0.145213 0.032980 1.358626
-0.139437 0.033067 1.362216
-0.133588 0.033144 1.365375
-0.141425 0.036788 1.515513
-0.156758 0.042853 1.765346
-0.149524 0.043068 1.774217
-0.143063 0.043543 1.793791
-0.135425 0.043696 1.800067
-0.127367 0.043723 1.801198
-0.119010 0.043645 1.797980
-0.113224 0.044567 1.835981
-0.084528 0.035904 1.479098
-0.076969 0.035502 1.462532
-0.069701 0.035171 1.448912
-0.062581 0.034854 1.435849
-0.055691 0.034607 1.425659
-0.048971 0.034414 1.417715
-0.042352 0.034245 1.410748
-0.035830 0.034108 1.405084
-0.029415 0.034036 1.402150
-0.023027 0.033965 1.399193
-0.016679 0.033920 1.397352
-0.010352 0.033888 1.396035
-0.004040 0.033888 1.396052
0.002272 0.033888 1.396041
0.008584 0.033887 1.396002
0.014909 0.033919 1.397298
0.021230 0.033925 1.397554
0.027580 0.033963 1.399118
0.033944 0.034001 1.400685
0.040320 0.034038 1.402203
0.046745 0.034100 1.404756
0.053213 0.034175 1.407850
0.059657 0.034220 1.409715
0.066205 0.034310 1.413443
0.072738 0.034377 1.416204
0.079371 0.034478 1.420327
0.086041 0.034577 1.424436
0.092746 0.034677 1.428526
0.099596 0.034813 1.434150
0.106613 0.034988 1.441355
0.113807 0.035197 1.449982
0.121296 0.035471 1.461236
0.129300 0.035858 1.477192
0.147924 0.039008 1.606966
0.154102 0.038735 1.595700
0.159787 0.038367 1.580574
0.165442 0.038025 1.566449
0.171185 0.037729 1.554289
0.177082 0.037490 1.544433
0.183873 0.037451 1.542828
0.191107 0.037502 1.544914
0.198374 0.037555 1.547119
0.205649 0.037607 1.549227
0.212870 0.037645 1.550807
0.220007 0.037666 1.551691
0.227118 0.037682 1.552341
0.234195 0.037692 1.552729
0.241210 0.037691 1.552695
0.248595 0.037746 1.554979
0.256229 0.037835 1.558650
0.263918 0.037928 1.562450
0.271646 0.038021 1.566281
0.279440 0.038118 1.570281
0.287128 0.038196 1.573504
0.294133 0.038182 1.572923
0.301957 0.038272 1.576643
0.310341 0.038428 1.583049
0.317988 0.038487 1.585487
0.325959 0.038582 1.589405
0.334232 0.038708 1.594590
0.342286 0.038803 1.598534
0.350752 0.038941 1.604200
0.359205 0.039071 1.609575
0.367715 0.039203 1.614991
0.376274 0.039334 1.620404
0.384946 0.039472 1.626089
0.393872 0.039631 1.632612
0.402506 0.039754 1.637712
0.411180 0.039878 1.642782
0.419854 0.039996 1.647675
0.428222 0.040082 1.651216
0.436546 0.040161 1.654469
0.444707 0.040223 1.657006
0.452485 0.040248 1.658055
0.461323 0.040366 1.662890
0.470361 0.040496 1.668280
0.480105 0.040683 1.675966
0.489132 0.040804 1.680948
0.498667 0.040963 1.687497
0.509335 0.041209 1.697622
0.523340 0.041713 1.718407
0.539496 0.042372 1.745541
0.523551 0.040527 1.669529
0.504336 0.038485 1.585399
0.508807 0.038282 1.577038
0.509730 0.037821 1.558066
0.506424 0.037064 1.526860
0.511518 0.036933 1.521477
0.518165 0.036916 1.520796
0.525090 0.036920 1.520938
0.531967 0.036920 1.520939
0.540297 0.037019 1.525043
-0.399381 0.031470 1.095420
-0.395087 0.031523 1.097248
-0.391236 0.031612 1.100369
-0.387569 0.031719 1.104097
-0.383852 0.031825 1.107774
-0.380273 0.031945 1.111955
-0.376577 0.032059 1.115902
-0.372897 0.032176 1.120001
-0.369055 0.032283 1.123720
-0.365298 0.032401 1.127807
-0.361245 0.032495 1.131085
-0.357612 0.032630 1.135788
-0.353718 0.032745 1.139785
-0.349977 0.032877 1.144404
-0.345907 0.032983 1.148068
-0.341802 0.033088 1.151727
-0.337938 0.033220 1.156324
-0.333906 0.033339 1.160478
-0.329796 0.033455 1.164495
-0.325632 0.033568 1.168445
-0.321730 0.033713 1.173480
-0.317479 0.033825 1.177391
-0.313610 0.033983 1.182877
-0.309235 0.034090 1.186609
-0.305388 0.034260 1.192538
-0.301283 0.034407 1.197651
-0.297114 0.034552 1.202696
-0.292620 0.034664 1.206587
-0.288088 0.034775 1.210464
-0.283752 0.034915 1.215334
-0.296559 0.037212 1.295271
-0.388036 0.049671 1.728955
-0.380648 0.049727 1.730904
-0.373837 0.049862 1.735619
-0.366350 0.049911 1.737323
-0.359144 0.050002 1.740468
-0.351634 0.050053 1.742247
-0.343843 0.050065 1.742682
-0.334248 0.049809 1.733783
-0.325190 0.049624 1.727310
-0.317971 0.049716 1.730524
-0.310821 0.049824 1.734283
-0.303444 0.049900 1.736938
-0.295810 0.049937 1.738224
-0.287684 0.049891 1.736617
-0.276911 0.049370 1.718485
-0.267966 0.049154 1.710981
-0.259366 0.048991 1.705297
-0.250994 0.048862 1.700813
-0.240217 0.048242 1.679234
-0.207470 0.043026 1.497649
-0.193288 0.041437 1.442351
-0.180480 0.040042 1.393797
-0.169693 0.039011 1.357903
-0.162626 0.038790 1.350202
-0.156789 0.038856 1.352507
-0.151079 0.038960 1.356144
-0.145334 0.039064 1.359764
-0.139555 0.039168 1.363366
-0.133535 0.039210 1.364834
-0.140064 0.043120 1.500931
-0.152429 0.049316 1.716601
-0.144553 0.049277 1.715238
-0.137716 0.049607 1.726752
-0.130964 0.050010 1.740763
-0.124467 0.050568 1.760194
-0.117558 0.051024 1.776048
-0.100775 0.046946 1.634115
-0.084233 0.042344 1.473929
-0.076711 0.041876 1.457634
-0.069406 0.041449 1.442778
-0.062373 0.041113 1.431075
-0.055542 0.040848 1.421843
-0.048814 0.040598 1.413165
-0.042253 0.040434 1.407431
-0.035745 0.040271 1.401780
-0.029346 0.040187 1.398853
-0.022973 0.040103 1.395903
-0.016640 0.040050 1.394067
-0.010327 0.040010 1.392673
-0.004026 0.039974 1.391410
0.002264 0.039973 1.391399
0.008555 0.039972 1.391360
0.014859 0.040009 1.392651
0.021160 0.040017 1.392907
0.027488 0.040061 1.394466
0.033839 0.040116 1.396360
0.040186 0.040150 1.397540
0.046598 0.040230 1.400348
0.053036 0.040311 1.403169
0.059498 0.040392 1.405967
0.065974 0.040465 1.408512
0.072509 0.040558 1.411748
0.079107 0.040669 1.415605
0.085764 0.040791 1.419862
0.092455 0.040911 1.424031
0.099351 0.041100 1.430626
0.106271 0.041276 1.436731
0.113428 0.041518 1.445162
0.120779 0.041800 1.455004
0.128426 0.042151 1.467210
0.145882 0.045529 1.584781
0.154210 0.045875 1.596823
0.159885 0.045436 1.581545
0.165579 0.045040 1.567751
0.171328 0.044690 1.555591
0.177162 0.044390 1.545131
0.183848 0.044317 1.542615
0.191080 0.044377 1.544700
0.198385 0.044449 1.547203
0.205708 0.044520 1.549670
0.212909 0.044561 1.551090
0.219817 0.044540 1.550353
0.227087 0.044591 1.552128
0.234174 0.044604 1.552594
0.241293 0.044622 1.553228
0.248804 0.044710 1.556285
0.256465 0.044819 1.560087
0.264154 0.044927 1.563848
0.271803 0.045023 1.567183
0.280703 0.045316 1.577382
0.280314 0.044132 1.536166
0.267057 0.041028 1.428132
0.272489 0.040875 1.422777
0.278449 0.040805 1.420365
0.285135 0.040843 1.421683
0.292586 0.040987 1.426673
0.324957 0.044539 1.550339
0.342577 0.045963 1.599893
0.350765 0.046088 1.604258
0.359513 0.046281 1.610955
0.368038 0.046437 1.616409
0.376781 0.046615 1.622589
0.385336 0.046763 1.627736
0.394284 0.046952 1.634320
0.403059 0.047114 1.639959
0.411814 0.047268 1.645316
0.420318 0.047388 1.649497
0.429003 0.047524 1.654227
0.437265 0.047609 1.657196
0.445422 0.047680 1.659671
0.453392 0.047729 1.661378
0.462283 0.047872 1.666353
0.471291 0.048022 1.671579
0.480617 0.048200 1.677753
0.489926 0.048370 1.683677
0.499179 0.048529 1.689228
0.509412 0.048778 1.697879
0.521249 0.049170 1.711539
0.532313 0.049480 1.722302
0.508645 0.046598 1.621996
0.503864 0.045504 1.583915
0.508999 0.045323 1.577632
0.507722 0.044585 1.551929
0.506360 0.043859 1.526667
0.511953 0.043747 1.522771
0.518341 0.043705 1.521314
0.525826 0.043756 1.523070
0.533027 0.043782 1.523970
0.542655 0.044004 1.531700
-0.398935 0.036309 1.094196
-0.394646 0.036370 1.096025
-0.390761 0.036469 1.099035
-0.387136 0.036596 1.102862
-0.383519 0.036728 1.106816
-0.379881 0.036860 1.110809
-0.376205 0.036993 1.114799
-0.372485 0.037124 1.118763
-0.368683 0.037251 1.122588
-0.364846 0.037378 1.126412
-0.360973 0.037505 1.130232
-0.357211 0.037647 1.134514
-0.353321 0.037779 1.138506
-0.349659 0.037940 1.143363
-0.345581 0.038061 1.146987
-0.341418 0.038175 1.150434
-0.337480 0.038319 1.154757
-0.333500 0.038462 1.159070
-0.329426 0.038598 1.163186
-0.325266 0.038729 1.167131
-0.321363 0.038895 1.172142
-0.317432 0.039064 1.177216
-0.313447 0.039231 1.182262
-0.309119 0.039361 1.186167
-0.305208 0.039549 1.191836
-0.301105 0.039718 1.196945
-0.297069 0.039903 1.202515
-0.292576 0.040032 1.206405
-0.288175 0.040179 1.210831
-0.283808 0.040337 1.215575
-0.277692 0.040247 1.212866
-0.388197 0.057396 1.729674
-0.381213 0.057522 1.733475
-0.373780 0.057585 1.735354
-0.366688 0.057703 1.738929
-0.359184 0.057761 1.740661
-0.349431 0.057451 1.731331
-0.337332 0.056733 1.709684
-0.329520 0.056719 1.709257
-0.323493 0.057019 1.718296
-0.316778 0.057209 1.724028
-0.309726 0.057346 1.728172
-0.302227 0.057406 1.729975
-0.294715 0.057466 1.731794
-0.286502 0.057390 1.729480
-0.275986 0.056834 1.712743
-0.267548 0.056687 1.708313
-0.259212 0.056553 1.704282
-0.250813 0.056398 1.699586
-0.240615 0.055814 1.682011
-0.207769 0.049768 1.499803
-0.193726 0.047970 1.445613
-0.180821 0.046338 1.396427
-0.169921 0.045120 1.359726
-0.162734 0.044834 1.351099
-0.156860 0.044901 1.353123
-0.151113 0.045011 1.356447
-0.145311 0.045114 1.359549
-0.139669 0.045278 1.364482
-0.133636 0.045324 1.365873
-0.140228 0.049864 1.502681
-0.151446 0.056595 1.705534
-0.144192 0.056775 1.710956
-0.136814 0.056923 1.715430
-0.129723 0.057217 1.724276
-0.122673 0.057567 1.734826
-0.115408 0.057857 1.743554
-0.092421 0.049730 1.498647
-0.083901 0.048717 1.468115
-0.076431 0.048192 1.452316
-0.069209 0.047740 1.438676
-0.062165 0.047329 1.426290
-0.055375 0.047039 1.417551
-0.048703 0.046786 1.409945
-0.042133 0.046570 1.403428
-0.035661 0.046405 1.398457
-0.029261 0.046283 1.394788
-0.022919 0.046211 1.392594
-0.016593 0.046129 1.390139
-0.010302 0.046105 1.389397
-0.004017 0.046062 1.388112
0.002259 0.046062 1.388101
0.008535 0.046060 1.388062
0.014810 0.046058 1.388007
0.021107 0.046105 1.389411
0.027416 0.046151 1.390789
0.033736 0.046196 1.392139
0.040090 0.046264 1.394207
0.046482 0.046353 1.396871
0.052910 0.046451 1.399843
0.059336 0.046527 1.402119
0.065796 0.046613 1.404709
0.072324 0.046727 1.408150
0.078920 0.046863 1.412250
0.085551 0.046999 1.416336
0.092303 0.047176 1.421693
0.099116 0.047360 1.427236
0.106007 0.047557 1.433160
0.113099 0.047816 1.440963
0.120392 0.048127 1.450345
0.127969 0.048513 1.461989
0.138168 0.049807 1.500976
0.154263 0.053006 1.597368
0.159950 0.052502 1.582185
0.165626 0.052038 1.568198
0.171446 0.051655 1.556660
0.177416 0.051346 1.547345
0.184057 0.051247 1.544369
0.191240 0.051301 1.545994
0.198548 0.051383 1.548471
0.205829 0.051453 1.550579
0.213046 0.051503 1.552089
0.219962 0.051479 1.551372
0.227169 0.051523 1.552690
0.234226 0.051531 1.552935
0.241415 0.051567 1.554014
0.248765 0.051634 1.556043
0.256414 0.051758 1.559778
0.263756 0.051815 1.561493
0.267791 0.051237 1.544052
0.254560 0.047468 1.430472
0.259377 0.047167 1.421425
0.264730 0.046977 1.415687
0.270776 0.046916 1.413835
0.277231 0.046926 1.414153
0.283956 0.046981 1.415807
0.290832 0.047058 1.418122
0.297811 0.047148 1.420830
0.305265 0.047307 1.425637
0.348996 0.052966 1.596165
0.359803 0.053500 1.612256
0.368352 0.053683 1.617787
0.377291 0.053915 1.624783
0.386100 0.054121 1.630963
0.394759 0.054297 1.636292
0.403458 0.054473 1.641583
0.412394 0.054674 1.647631
0.421187 0.054849 1.652905
0.429966 0.055016 1.657942
0.438422 0.055136 1.661579
0.446975 0.055265 1.665458
0.455258 0.055357 1.668216
0.463896 0.055488 1.672165
0.472901 0.055658 1.677291
0.481955 0.055828 1.682423
0.491060 0.055999 1.687573
0.500210 0.056170 1.692716
0.509724 0.056376 1.698921
0.519325 0.056585 1.705224
0.527880 0.056675 1.707957
0.506057 0.053549 1.613744
0.503524 0.052524 1.582844
0.507544 0.052201 1.573122
0.505682 0.051291 1.545691
0.506034 0.050627 1.525682
0.511682 0.050504 1.521966
0.518614 0.050509 1.522114
0.526346 0.050590 1.524577
0.534544 0.050714 1.528310
0.544437 0.050994 1.536729
-0.398558 0.041144 1.093162
-0.394371 0.041223 1.095261
-0.390439 0.041331 1.098128
-0.386800 0.041473 1.101906
-0.383013 0.041603 1.105356
-0.379317 0.041746 1.109159
-0.375777 0.041911 1.113530
-0.372055 0.042059 1.117472
-0.368242 0.042201 1.121247
-0.364388 0.042342 1.124997
-0.360670 0.042503 1.129283
-0.356804 0.042652 1.133220
-0.352918 0.042802 1.137207
-0.349076 0.042962 1.141458
-0.345185 0.043120 1.145671
-0.341111 0.043260 1.149397
-0.337237 0.043431 1.153924
-0.333170 0.043581 1.157921
-0.329049 0.043729 1.161856
-0.325025 0.043895 1.166264
-0.321004 0.044067 1.170831
-0.317068 0.044257 1.175868
-0.313088 0.044446 1.180908
-0.309067 0.044637 1.185966
-0.304992 0.044826 1.190993
-0.300892 0.045018 1.196098
-0.296729 0.045208 1.201136
-0.292526 0.045398 1.206199
-0.288274 0.045588 1.211247
-0.283943 0.045773 1.216152
-0.279583 0.045960 1.221126
-0.385589 0.064663 1.718050
-0.379542 0.064958 1.725875
-0.372844 0.065151 1.731006
-0.365166 0.065177 1.731711
-0.351075 0.064035 1.701365
-0.340676 0.063530 1.687954
-0.333262 0.063572 1.689059
-0.326066 0.063658 1.691341
-0.318696 0.063713 1.692816
-0.310791 0.063662 1.691445
-0.303453 0.063727 1.693171
-0.296395 0.063856 1.696593
-0.289368 0.063998 1.700374
-0.282169 0.064109 1.703324
-0.274671 0.064156 1.704587
-0.266756 0.064106 1.703257
-0.258374 0.063938 1.698775
-0.250053 0.063775 1.694438
-0.240849 0.063368 1.683650
-0.208213 0.056570 1.503008
-0.194039 0.054497 1.447949
-0.181241 0.052680 1.399676
-0.170416 0.051326 1.363689
-0.162963 0.050924 1.352997
-0.156889 0.050938 1.353373
-0.151150 0.051066 1.356783
-0.145427 0.051211 1.360634
-0.139644 0.051347 1.364238
-0.133654 0.051415 1.366057
-0.138943 0.056039 1.488914
-0.150950 0.063982 1.699948
-0.143392 0.064039 1.701461
-0.136083 0.064220 1.706270
-0.128837 0.064454 1.712497
-0.121326 0.064578 1.715773
-0.113638 0.064617 1.716820
-0.091933 0.056108 1.490738
-0.083556 0.055030 1.462094
-0.076049 0.054388 1.445046
-0.068938 0.053936 1.433049
-0.062016 0.053554 1.422879
-0.055242 0.053226 1.414161
-0.048591 0.052945 1.406703
-0.042041 0.052707 1.400394
-0.035578 0.052513 1.395232
-0.029207 0.052399 1.392200
-0.022864 0.052289 1.389264
-0.016557 0.052208 1.387116
-0.010278 0.052169 1.386100
-0.004007 0.052116 1.384674
0.002252 0.052089 1.383959
0.008512 0.052104 1.384359
0.014774 0.052116 1.384674
0.021050 0.052152 1.385647
0.027344 0.052209 1.387160
0.033662 0.052281 1.389075
0.039995 0.052349 1.390883
0.046366 0.052444 1.393383
0.052784 0.052561 1.396496
0.059204 0.052656 1.399015
0.065653 0.052755 1.401657
0.072193 0.052904 1.405610
0.078731 0.053027 1.408874
0.085369 0.053194 1.413311
0.092085 0.053383 1.418341
0.098854 0.053576 1.423473
0.105743 0.053807 1.429596
0.112779 0.054081 1.436887
0.119987 0.054404 1.445466
0.127539 0.054841 1.457071
0.135628 0.055455 1.473385
0.154437 0.060189 1.599167
0.160170 0.059631 1.584357
0.165848 0.059102 1.570295
0.171725 0.058684 1.559199
0.177731 0.058342 1.550094
0.184274 0.058195 1.546194
0.191395 0.058235 1.547245
0.198668 0.058316 1.549411
0.205954 0.058396 1.551522
0.213046 0.058417 1.552087
0.220063 0.058417 1.552085
0.227233 0.058456 1.553127
0.234325 0.058473 1.553594
0.241421 0.058491 1.554056
0.248964 0.058613 1.557289
0.256471 0.058719 1.560125
0.258861 0.057680 1.532512
0.247215 0.053649 1.425413
0.252279 0.053357 1.417656
0.257660 0.053145 1.412015
0.263258 0.052987 1.407813
0.269660 0.052994 1.408007
0.276457 0.053077 1.410208
0.283201 0.053146 1.412040
0.290244 0.053267 1.415255
0.297309 0.053386 1.418435
0.304459 0.053516 1.421877
0.312632 0.053816 1.429855
0.356282 0.060088 1.596479
0.369148 0.061021 1.621283
0.377859 0.061245 1.627230
0.386646 0.061472 1.633271
0.395553 0.061710 1.639581
0.404419 0.061932 1.645495
0.413554 0.062187 1.652268
0.422711 0.062437 1.658888
0.431714 0.062655 1.664681
0.440546 0.062841 1.669629
0.449321 0.063013 1.674200
0.457808 0.063139 1.677560
0.466335 0.063267 1.680959
0.474982 0.063407 1.684670
0.483203 0.063486 1.686780
0.491445 0.063566 1.688895
0.499217 0.063583 1.689356
0.507469 0.063660 1.691404
0.514842 0.063626 1.690504
0.521975 0.063564 1.688853
0.507478 0.060908 1.618274
0.503133 0.059528 1.581615
0.505700 0.058993 1.567407
0.503989 0.057981 1.540517
0.505654 0.057380 1.524537
0.511297 0.057240 1.520820
0.518267 0.057250 1.521097
0.526737 0.057424 1.525710
0.535595 0.057635 1.531314
0.545719 0.057975 1.540348
-0.398411 0.045996 1.092759
-0.393919 0.046049 1.094005
-0.390202 0.046194 1.097462
-0.386255 0.046316 1.100353
-0.382645 0.046482 1.104292
-0.379010 0.046649 1.108262
-0.375342 0.046816 1.112242
-0.371624 0.046982 1.116179
-0.367796 0.047138 1.119889
-0.363923 0.047293 1.123563
-0.360252 0.047479 1.127975
-0.356390 0.047644 1.131907
-0.352513 0.047812 1.135904
-0.348578 0.047978 1.139830
-0.344606 0.048143 1.143751
-0.340637 0.048313 1.147802
-0.336548 0.048472 1.151566
-0.332672 0.048666 1.156191
-0.328667 0.048848 1.160505
-0.324573 0.049022 1.164643
-0.320630 0.049225 1.169469
-0.316705 0.049438 1.174519
-0.312869 0.049672 1.180080
-0.308707 0.049861 1.184585
-0.304932 0.050121 1.190758
-0.300835 0.050337 1.195872
-0.296672 0.050549 1.200908
-0.292470 0.050762 1.205970
-0.287949 0.050926 1.209882
-0.283596 0.051128 1.214666
-0.278533 0.051207 1.216540
-0.352354 0.066083 1.569969
-0.375217 0.071818 1.706207
-0.366712 0.071663 1.702540
-0.354089 0.070680 1.679178
-0.342882 0.069943 1.661660
-0.336592 0.070198 1.667721
-0.329038 0.070195 1.667649
-0.320757 0.070033 1.663807
-0.312985 0.069977 1.662478
-0.304879 0.069842 1.659271
-0.297264 0.069815 1.658638
-0.289911 0.069851 1.659474
-0.282147 0.069786 1.657941
-0.276001 0.070129 1.666088
-0.270954 0.070778 1.681515
-0.263279 0.070759 1.681052
-0.255727 0.070772 1.681373
-0.247672 0.070643 1.678301
-0.239300 0.070412 1.672819
-0.208779 0.063437 1.507095
-0.194408 0.061063 1.450702
-0.181432 0.058977 1.401146
-0.170613 0.057467 1.365265
-0.163126 0.057007 1.354356
-0.157011 0.057010 1.354426
-0.151203 0.057130 1.357260
-0.145538 0.057316 1.361674
-0.139617 0.057412 1.363966
-0.133629 0.057489 1.365800
-0.138306 0.062384 1.482085
-0.149104 0.070679 1.679153
-0.141488 0.070667 1.678868
-0.134109 0.070779 1.681524
-0.126826 0.070957 1.685768
-0.119244 0.070981 1.686330
-0.110871 0.070505 1.675025
-0.091193 0.062243 1.478729
-0.083224 0.061297 1.456273
-0.075961 0.060754 1.443368
-0.068842 0.060236 1.431054
-0.061927 0.059806 1.420835
-0.055184 0.059462 1.412670
-0.048572 0.059188 1.406168
-0.041996 0.058882 1.398880
-0.035558 0.058695 1.394446
-0.029174 0.058536 1.390664
-0.022831 0.058392 1.387258
-0.016537 0.058315 1.385420
-0.010253 0.058204 1.382783
-0.003998 0.058148 1.381445
0.002248 0.058147 1.381419
0.008494 0.058145 1.381385
0.014739 0.058143 1.381335
0.021003 0.058196 1.382588
0.027278 0.058247 1.383803
0.033587 0.058339 1.385991
0.039936 0.058459 1.388835
0.046265 0.058522 1.390327
0.052684 0.058671 1.393868
0.059091 0.058774 1.396329
0.065518 0.058877 1.398769
0.072046 0.059044 1.402746
0.078617 0.059216 1.406827
0.085223 0.059387 1.410897
0.091866 0.059559 1.414971
0.098651 0.059793 1.420541
0.105498 0.060035 1.426287
0.112507 0.060336 1.433424
0.119698 0.060696 1.441978
0.127224 0.061180 1.453475
0.135145 0.061797 1.468136
0.153774 0.067023 1.592306
0.160113 0.066665 1.583794
0.165977 0.066148 1.571521
0.171907 0.065699 1.560844
0.178001 0.065346 1.552451
0.184646 0.065214 1.549313
0.191723 0.065238 1.549895
0.198861 0.065281 1.550911
0.206112 0.065357 1.552717
0.213349 0.065423 1.554291
0.220309 0.065403 1.553822
0.227629 0.065488 1.555832
0.234733 0.065508 1.556300
0.241986 0.065566 1.557693
0.249398 0.065664 1.560002
0.256068 0.065566 1.557674
0.241733 0.060238 1.431113
0.245701 0.059631 1.416680
0.250868 0.059338 1.409723
0.256471 0.059160 1.405499
0.262368 0.059057 1.403057
0.268886 0.059096 1.403966
0.275600 0.059174 1.405833
0.282598 0.059309 1.409035
0.289627 0.059444 1.412245
0.296674 0.059577 1.415406
0.303752 0.059711 1.418574
0.311164 0.059903 1.423141
0.319518 0.060265 1.431742
0.371033 0.068592 1.629564
0.379118 0.068722 1.632652
0.388046 0.068996 1.639184
0.396772 0.069226 1.644636
0.405960 0.069526 1.651765
0.415358 0.069851 1.659475
0.424496 0.070121 1.665890
0.433000 0.070278 1.669641
0.441028 0.070355 1.671454
0.448821 0.070392 1.672333
0.455863 0.070312 1.670435
0.463339 0.070300 1.670157
0.470784 0.070284 1.669780
0.478227 0.070269 1.669411
0.485657 0.070252 1.669004
0.492605 0.070167 1.666983
0.499523 0.070080 1.664919
0.506396 0.069989 1.662770
0.513261 0.069900 1.660659
0.509500 0.068388 1.624723
0.501894 0.066409 1.577722
0.503940 0.065746 1.561954
0.502127 0.064604 1.534826
0.504093 0.063973 1.519830
0.510208 0.063878 1.517582
0.517533 0.063935 1.518943
0.526132 0.064146 1.523957
0.536084 0.064515 1.532713
0.545735 0.064838 1.540393
-0.397915 0.050801 1.091397
-0.393455 0.050862 1.092715
-0.389827 0.051034 1.096407
-0.386171 0.051206 1.100113
-0.382468 0.051377 1.103781
-0.378565 0.051525 1.106961
-0.374975 0.051720 1.111152
-0.371195 0.051894 1.114891
-0.367438 0.052076 1.118798
-0.363799 0.052280 1.123179
-0.359828 0.052441 1.126648
-0.355998 0.052628 1.130661
-0.352424 0.052859 1.135616
-0.348504 0.053044 1.139589
-0.344531 0.053226 1.143501
-0.340563 0.053414 1.147553
-0.336474 0.053589 1.151313
-0.332390 0.053771 1.155212
-0.328459 0.053983 1.159771
-0.324450 0.054189 1.164202
-0.320564 0.054423 1.169229
-0.316634 0.054657 1.174258
-0.312659 0.054892 1.179290
-0.308592 0.055118 1.184142
-0.304574 0.055360 1.189359
-0.300552 0.055611 1.194745
-0.296611 0.055886 1.200658
-0.292183 0.056078 1.204786
-0.287807 0.056288 1.209287
-0.283204 0.056460 1.212989
-0.278346 0.056587 1.215722
-0.292376 0.060637 1.302726
-0.365355 0.077330 1.661362
-0.357119 0.077174 1.657998
-0.346311 0.076443 1.642293
-0.336727 0.075956 1.631833
-0.329808 0.076062 1.634105
-0.322138 0.075995 1.632680
-0.314764 0.075997 1.632718
-0.307287 0.075973 1.632210
-0.299387 0.075842 1.629381
-0.291919 0.075815 1.628816
-0.284373 0.075767 1.627774
-0.276802 0.075709 1.626534
-0.271040 0.076157 1.636144
-0.265502 0.076694 1.647681
-0.258438 0.076808 1.650141
-0.251077 0.076839 1.650798
-0.243426 0.076780 1.649532
-0.234830 0.076409 1.641574
-0.209104 0.070259 1.509442
-0.195014 0.067736 1.455229
-0.181970 0.065412 1.405303
-0.170797 0.063617 1.366741
-0.163258 0.063091 1.355448
-0.157154 0.063101 1.355662
-0.151260 0.063199 1.357772
-0.145509 0.063368 1.361395
-0.139711 0.063531 1.364888
-0.133567 0.063543 1.365165
-0.137442 0.068555 1.472835
-0.146562 0.076826 1.650531
-0.138912 0.076723 1.648306
-0.131632 0.076823 1.650468
-0.124259 0.076878 1.651646
-0.116679 0.076804 1.650060
-0.107307 0.075460 1.621171
-0.091510 0.069069 1.483879
-0.083132 0.067709 1.454667
-0.075416 0.066702 1.433025
-0.068253 0.066040 1.418797
-0.061629 0.065817 1.414011
-0.055279 0.065868 1.415106
-0.048525 0.065389 1.404809
-0.042025 0.065157 1.399838
-0.035570 0.064928 1.394903
-0.029155 0.064688 1.389748
-0.022803 0.064494 1.385585
-0.016503 0.064354 1.382579
-0.010238 0.064270 1.380771
-0.003992 0.064219 1.379673
0.002243 0.064160 1.378420
