ply
format ascii 1.0
comment generated by convert_depth_to_ply.py
element vertex 1628
property float x
property float y
property float z
end_header
5.657113 -4.065761 32.232243
5.736472 -4.052740 32.129013
5.813022 -4.038202 32.013760
5.883414 -4.019934 31.868938
5.948728 -3.998844 31.701740
6.012058 -3.977113 31.529461
6.084159 -3.961773 31.407852
6.161940 -3.950548 31.318861
6.233609 -3.935805 31.201984
6.318179 -3.929527 31.152214
6.390020 -3.915634 31.042072
6.478820 -3.912385 31.016319
6.551926 -3.899888 30.917242
6.634067 -3.893046 30.863001
6.723383 -3.890546 30.843182
6.812527 -3.888017 30.823130
6.901498 -3.885458 30.802847
6.990294 -3.882871 30.782337
7.078913 -3.880255 30.761597
7.153296 -3.870005 30.680340
7.227126 -3.859723 30.598827
7.314854 -3.857031 30.577482
7.402400 -3.854311 30.555918
7.489761 -3.851563 30.534134
7.573259 -3.846920 30.497326
7.648969 -3.838481 30.430422
7.720504 -3.828172 30.348701
7.806773 -3.825327 30.326143
7.892849 -3.822455 30.303373
7.978734 -3.819556 30.280397
8.064628 -3.816729 30.257982
-6.520236 -2.669777 21.675144
-6.468868 -2.675731 21.723476
-6.446864 -2.694077 21.872429
-6.441210 -2.719710 22.080530
-6.437545 -2.746729 22.299892
-6.355416 -2.740488 22.249226
-6.219475 -2.710661 22.007063
-6.110107 -2.691893 21.854691
-6.038538 -2.689548 21.835659
-5.982745 -2.694256 21.873882
-5.910157 -2.691422 21.850870
-5.812967 -2.677193 21.735346
-5.723628 -2.666294 21.646864
-5.666603 -2.670371 21.679960
-5.689313 -2.712559 22.022474
-5.761247 -2.779498 22.565933
-5.680067 -2.773289 22.515524
-5.545878 -2.740732 22.251207
-5.128536 -2.565717 20.830307
-4.585695 -2.322766 18.857857
-4.478371 -2.297063 18.649185
-4.418045 -2.295117 18.633387
-4.382206 -2.306007 18.721794
-4.378491 -2.334308 18.951565
-4.406317 -2.380402 19.325788
-4.577615 -2.506292 20.347851
-4.754274 -2.638599 21.422014
-4.786754 -2.693445 21.867296
-4.793794 -2.735318 22.207247
-4.797415 -2.776406 22.540829
-4.872911 -2.860880 23.226646
-4.929071 -2.936314 23.839073
-3.664608 -2.215566 17.987532
-3.581695 -2.198173 17.846323
-3.522839 -2.195237 17.822487
-3.441609 -2.178050 17.682953
-12.872764 -8.275635 67.187462
-13.254796 -8.658342 70.294548
-12.677960 -8.416967 68.334900
-12.477314 -8.421474 68.371490
-12.269409 -8.421151 68.368866
-12.086353 -8.438166 68.507004
-12.071947 -8.575579 69.622627
-12.873073 -9.307537 75.565178
-3.090138 -2.274755 18.468069
-3.100990 -2.324899 18.875174
-3.035022 -2.318252 18.821211
-2.951897 -2.297993 18.656736
-2.875107 -2.281971 18.526659
-4.393238 -3.556440 28.873701
-11.939937 -9.862343 80.069489
-13.630577 -11.492630 93.305313
-12.803279 -11.024043 89.500984
-12.662288 -11.138885 90.433357
-12.324757 -11.082091 89.972260
-12.103277 -11.129438 90.356659
-11.815767 -11.116855 90.254501
-11.609476 -11.181902 90.782600
-11.316192 -11.164286 90.639580
-11.066640 -11.190012 90.848442
-10.879803 -11.282087 91.595970
-10.669107 -11.353597 92.176544
-10.567014 -11.547639 93.751915
-1.146081 -1.287083 10.449449
-0.381463 -0.440582 3.576953
-0.376422 -0.447490 3.633042
-0.370689 -0.453968 3.685630
-0.360501 -0.455223 3.695820
-0.349431 -0.455409 3.697336
-0.338619 -0.455955 3.701768
-0.327589 -0.456235 3.704038
-0.316502 -0.456452 3.705801
-0.305794 -0.457252 3.712294
-0.295086 -0.458114 3.719295
-0.284319 -0.458949 3.726075
-0.273424 -0.459637 3.731656
-0.262562 -0.460444 3.738209
-0.251763 -0.461438 3.746280
-0.241062 -0.462714 3.756637
-0.230185 -0.463763 3.765155
-0.219440 -0.465201 3.776831
-0.208616 -0.466620 3.788350
-0.197774 -0.468162 3.800874
-0.186691 -0.469289 3.810018
-0.175614 -0.470582 3.820521
-0.164386 -0.471623 3.828968
-0.153166 -0.472850 3.838932
-0.141842 -0.473928 3.847686
-0.130516 -0.475196 3.857975
-0.119233 -0.476883 3.871675
-0.107729 -0.477958 3.880404
-0.096210 -0.479223 3.890671
-0.084640 -0.480549 3.901440
-0.073020 -0.481983 3.913076
-0.061308 -0.483244 3.923316
-0.049543 -0.484590 3.934248
-0.037689 -0.485655 3.942894
-0.025779 -0.486632 3.950823
-0.013832 -0.488039 3.962242
-0.001813 -0.488577 3.966617
0.010238 -0.489370 3.973054
0.022348 -0.490598 3.983024
0.034528 -0.491955 3.994042
0.046736 -0.492917 4.001850
0.058992 -0.493876 4.009634
0.071349 -0.495204 4.020421
0.083711 -0.496181 4.028346
0.096121 -0.497154 4.036250
0.108622 -0.498324 4.045749
0.121195 -0.499558 4.055762
0.133765 -0.500548 4.063802
0.146388 -0.501553 4.071962
0.159124 -0.502761 4.081770
0.172071 -0.504413 4.095181
0.184878 -0.505459 4.103674
0.197753 -0.506547 4.112505
0.210692 -0.507658 4.121526
0.223376 -0.508067 4.124852
0.236402 -0.509170 4.133800
0.249602 -0.510515 4.144726
0.262708 -0.511550 4.153123
0.276350 -0.513486 4.168844
0.289680 -0.514698 4.178680
0.303287 -0.516279 4.191520
0.316156 -0.516527 4.193532
0.328545 -0.516004 4.189284
0.336784 -0.509242 4.134389
0.357876 -0.521705 4.235567
2.697258 -3.795715 30.816299
2.817080 -3.831523 31.107016
2.931571 -3.857994 31.321926
3.071145 -3.914776 31.782925
3.195373 -3.949135 32.061874
3.305653 -3.964734 32.188522
3.430073 -3.995911 32.441635
3.556235 -4.027322 32.696655
3.678013 -4.052198 32.898609
3.793987 -4.069533 33.039352
3.906346 -4.082199 33.142181
4.007863 -4.083183 33.150173
4.116415 -4.091110 33.214531
4.219643 -4.093494 33.233887
4.330573 -4.103064 33.311581
4.435032 -4.106206 33.337090
4.538386 -4.108209 33.353348
4.628141 -4.098082 33.271130
4.712701 -4.083885 33.155869
4.799733 -4.072380 33.062462
4.875779 -4.052215 32.898750
4.952598 -4.033488 32.746716
5.026694 -4.013324 32.583008
5.105766 -3.997834 32.457249
5.191141 -3.987773 32.375565
5.280561 -3.981134 32.321667
5.370652 -3.975234 32.273766
5.460060 -3.969049 32.223553
5.543602 -3.958893 32.141098
5.626651 -3.948742 32.058681
5.709163 -3.938565 31.976059
5.785554 -3.924576 31.862484
5.855530 -3.906767 31.717897
5.926758 -3.890356 31.584661
5.996315 -3.873387 31.446899
6.072351 -3.861069 31.346895
6.145248 -3.847166 31.234022
6.229686 -3.840802 31.182348
6.301858 -3.827178 31.071743
6.391204 -3.824232 31.047823
6.461873 -3.810358 30.935186
6.546831 -3.805187 30.893202
6.636345 -3.802772 30.873596
6.725688 -3.800328 30.853758
6.814860 -3.797856 30.833685
6.903859 -3.795355 30.813383
6.992682 -3.792826 30.792850
7.081327 -3.790269 30.772089
7.169602 -3.787582 30.750277
7.243217 -3.777319 30.666954
7.317339 -3.767578 30.587870
7.404911 -3.764919 30.566282
7.492298 -3.762233 30.544476
7.579499 -3.759521 30.522451
7.643730 -3.745618 30.409580
7.723108 -3.739380 30.358936
7.809402 -3.736599 30.336355
7.887830 -3.730163 30.284103
7.979647 -3.730133 30.283863
8.059464 -3.724559 30.238607
-6.581799 -2.630062 21.879797
-6.541317 -2.640517 21.966772
-6.512782 -2.656059 22.096071
-6.486564 -2.672880 22.236004
-6.452825 -2.686922 22.352823
-6.353661 -2.673730 22.243080
-6.234485 -2.651744 22.060175
-6.136887 -2.638558 21.950478
-6.070948 -2.638844 21.952854
-6.014018 -2.643095 21.988222
-5.929930 -2.635372 21.923975
-5.833646 -2.621992 21.812668
-5.754358 -2.616033 21.763088
-5.699884 -2.621346 21.807289
-5.726091 -2.664325 22.164837
-5.885279 -2.770936 23.051746
-5.896360 -2.809540 23.372898
-5.803857 -2.799127 23.286272
-5.656117 -2.761489 22.973156
-4.774554 -2.360166 19.634506
-4.510870 -2.257994 18.784519
-4.428476 -2.245115 18.677382
-4.383445 -2.251090 18.727085
-4.357144 -2.266967 18.859167
-4.349787 -2.293254 19.077854
-4.434063 -2.369211 19.709751
-4.694079 -2.542431 21.150785
-4.764566 -2.616375 21.765936
-4.753565 -2.647021 22.020885
-4.744167 -2.679447 22.290638
-4.799025 -2.749626 22.874468
-4.865870 -2.828834 23.533405
-3.712691 -2.190562 18.223543
-3.586688 -2.148208 17.871199
-3.521349 -2.141447 17.814949
-3.422453 -2.113749 17.584526
-12.010348 -7.535199 62.686214
-13.510544 -8.612795 71.650864
-12.913952 -8.367101 69.606911
-12.596106 -8.296844 69.022430
-12.278740 -8.224532 68.420860
-12.071302 -8.224632 68.421692
-12.111281 -8.396259 69.849480
-9.148433 -6.455187 53.701469
-3.086487 -2.217332 18.446247
-3.053294 -2.233993 18.584854
-2.966936 -2.211651 18.398985
-3.068893 -2.331519 19.396183
-7.671974 -5.942551 49.436787
-14.070985 -11.116418 92.478806
-13.600811 -10.963582 91.207344
-13.172736 -10.839039 90.171257
-12.917233 -10.854223 90.297577
-12.580925 -10.800694 89.852264
-12.329014 -10.818855 90.003342
-12.060698 -10.823116 90.038788
-11.796679 -10.831519 90.108696
-11.568220 -10.873746 90.459991
-11.290852 -10.870936 90.436615
-11.055028 -10.908982 90.753120
-10.828322 -10.958198 91.162552
-10.603873 -11.012338 91.612953
-10.214502 -10.893508 90.624390
-7.014836 -7.688089 63.958126
-0.522485 -0.588922 4.899309
-0.373895 -0.433778 3.608655
-0.367640 -0.439388 3.655321
-0.360135 -0.443805 3.692066
-0.350130 -0.445328 3.704735
-0.338993 -0.445463 3.705857
-0.327703 -0.445399 3.705331
-0.316541 -0.445511 3.706259
-0.305441 -0.445722 3.708012
-0.294847 -0.446716 3.716284
-0.284201 -0.447706 3.724523
-0.273382 -0.448496 3.731088
-0.262632 -0.449471 3.739202
-0.251850 -0.450477 3.747569
-0.241004 -0.451459 3.755740
-0.230109 -0.452440 3.763900
-0.219255 -0.453610 3.773635
-0.208498 -0.455122 3.786212
-0.197592 -0.456462 3.797364
-0.186577 -0.457704 3.807692
-0.175414 -0.458723 3.816169
-0.164293 -0.460002 3.826812
-0.153027 -0.461041 3.835453
-0.141814 -0.462419 3.846919
-0.130498 -0.463683 3.857438
-0.119104 -0.464890 3.867473
-0.107652 -0.466111 3.877631
-0.096195 -0.467605 3.890060
-0.084591 -0.468700 3.899174
-0.072936 -0.469830 3.908573
-0.061279 -0.471377 3.921439
-0.049519 -0.472683 3.932305
-0.037674 -0.473755 3.941224
-0.025770 -0.474752 3.949522
-0.013818 -0.475790 3.958157
-0.001813 -0.476741 3.966066
0.010241 -0.477707 3.974103
0.022345 -0.478707 3.982424
0.034503 -0.479759 3.991176
0.046709 -0.480761 3.999509
0.058979 -0.481871 4.008744
0.071318 -0.483065 4.018679
0.083689 -0.484098 4.027269
0.096087 -0.485005 4.034813
0.108567 -0.486075 4.043719
0.121171 -0.487426 4.054954
0.133811 -0.488658 4.065205
0.146427 -0.489601 4.073046
0.159116 -0.490624 4.081557
0.172017 -0.492105 4.093877
0.184874 -0.493270 4.103571
0.197686 -0.494176 4.111112
0.210543 -0.495080 4.118629
0.223339 -0.495746 4.124173
0.236282 -0.496651 4.131695
0.249577 -0.498166 4.144303
0.262786 -0.499374 4.154352
0.276447 -0.501291 4.170303
0.289912 -0.502700 4.182017
0.303393 -0.504018 4.192985
0.316266 -0.504260 4.194997
0.329684 -0.505318 4.203799
0.339169 -0.500494 4.163666
0.364843 -0.519049 4.318027
2.686741 -3.689831 30.696142
2.833844 -3.761471 31.292130
2.929596 -3.762517 31.300831
3.074925 -3.825170 31.822046
3.196518 -3.855379 32.073357
3.310186 -3.874528 32.232662
3.431264 -3.901002 32.452904
3.557470 -3.931667 32.708004
3.675681 -3.952072 32.877754
3.791303 -3.968687 33.015980
3.905677 -3.983174 33.136501
4.006793 -3.983753 33.141315
4.108246 -3.984631 33.148621
4.214815 -3.990310 33.195862
4.320242 -3.994668 33.232117
4.431523 -4.004116 33.310715
4.525470 -3.997830 33.258423
4.615192 -3.988168 33.178043
4.700051 -3.974805 33.066875
4.781790 -3.959417 32.938866
4.862780 -3.944052 32.811039
4.939456 -3.925874 32.659817
5.011578 -3.904864 32.485027
5.093300 -3.891999 32.378002
5.181749 -3.884665 32.316990
5.271936 -3.878881 32.268875
5.351606 -3.865712 32.159317
5.445863 -3.863362 32.139767
5.527871 -3.852558 32.049892
5.610270 -3.842396 31.965347
5.688318 -3.829649 31.859310
5.761566 -3.814152 31.730381
5.836529 -3.800280 31.614979
5.914477 -3.788768 31.519211
5.988846 -3.775367 31.407726
6.056449 -3.758187 31.264809
6.140573 -3.751631 31.210264
6.213516 -3.738546 31.101410
6.303981 -3.736238 31.082211
6.386382 -3.729289 31.024397
6.459320 -3.717096 30.922966
6.549029 -3.714765 30.903574
6.638570 -3.712406 30.883947
6.727941 -3.710019 30.864090
6.817140 -3.707604 30.843998
6.906164 -3.705161 30.823673
6.995014 -3.702690 30.803122
7.083687 -3.700192 30.782341
7.171988 -3.697568 30.760508
7.259860 -3.694793 30.737419
7.334077 -3.685226 30.657837
7.413539 -3.678502 30.601898
7.494776 -3.672814 30.554577
7.582001 -3.670164 30.532530
7.646251 -3.656590 30.419609
7.725651 -3.650499 30.368933
7.811969 -3.647781 30.346329
7.882685 -3.637927 30.264347
7.966687 -3.634361 30.234680
8.054377 -3.632538 30.219521
-6.645951 -2.590141 22.093058
-6.601455 -2.599012 22.168724
-6.565164 -2.611329 22.273788
-6.522559 -2.621365 22.359394
-6.457200 -2.622372 22.367977
-6.350071 -2.606256 22.230513
-6.251205 -2.593221 22.119335
-6.163736 -2.584684 22.046511
-6.097512 -2.584965 22.048912
-6.035949 -2.587250 22.068403
-5.939100 -2.574292 21.957876
-5.852765 -2.565650 21.884157
-5.779102 -2.562427 21.856670
-5.716532 -2.564105 21.870983
-5.712527 -2.592400 22.112333
-5.905267 -2.711714 23.130035
-5.934211 -2.757777 23.522938
-5.785439 -2.721367 23.212374
-5.592888 -2.663213 22.716339
-5.066752 -2.442780 20.836121
-4.571142 -2.231680 19.035507
-4.437159 -2.193988 18.714003
-4.379380 -2.193486 18.709719
-4.340587 -2.202605 18.787506
-4.311916 -2.217172 18.911755
-4.338568 -2.260962 19.285271
-4.557810 -2.407686 20.536777
-4.737077 -2.537067 21.640360
-4.738621 -2.573564 21.951660
-4.711343 -2.595224 22.136414
-4.732426 -2.644535 22.557026
-4.719684 -2.676115 22.826387
-3.754521 -2.160559 18.428864
-3.604528 -2.105601 17.960093
-3.545498 -2.102908 17.937120
-3.446053 -2.075786 17.705782
-8.419334 -5.151832 43.943451
-13.769969 -8.561485 73.026680
-13.143429 -8.305569 70.843803
-12.710238 -8.165356 69.647835
-12.309707 -8.041739 68.593422
-12.902380 -8.573873 73.132347
-11.541163 -7.803513 66.561432
-3.330162 -2.291777 19.548113
-3.063093 -2.146205 18.306435
-2.985934 -2.130779 18.174849
-3.072208 -2.233592 19.051815
-10.350265 -7.669261 65.416306
-14.279288 -10.787410 92.013100
-13.758617 -10.601322 90.425827
-13.464076 -10.585444 90.290398
-13.173069 -10.571743 90.173531
-12.808131 -10.496871 89.534897
-12.502981 -10.468816 89.295593
-12.333171 -10.555348 90.033684
-12.064767 -10.559507 90.069160
-11.797698 -10.565054 90.116478
-11.566604 -10.603846 90.447357
-11.257677 -10.571434 90.170891
-11.004045 -10.590625 90.334587
-10.814744 -10.674292 91.048241
-10.729229 -10.867469 92.695976
-10.165191 -10.573309 90.186890
-10.247553 -10.953827 93.432587
-5.408873 -5.946142 50.718658
-0.408205 -0.461893 3.939800
-0.363524 -0.423743 3.614392
-0.358629 -0.431040 3.676631
-0.351047 -0.435472 3.714430
-0.339910 -0.435641 3.715875
-0.327815 -0.434553 3.706593
-0.316558 -0.434536 3.706454
-0.305283 -0.434494 3.706095
-0.294425 -0.435065 3.710964
-0.283801 -0.436041 3.719285
-0.273126 -0.437014 3.727592
-0.262315 -0.437847 3.734689
-0.251445 -0.438651 3.741549
-0.240713 -0.439783 3.751203
-0.229869 -0.440812 3.759980
-0.219133 -0.442167 3.771543
-0.208353 -0.443578 3.783578
-0.197399 -0.444760 3.793657
-0.186388 -0.445955 3.803850
-0.175377 -0.447305 3.815368
-0.164162 -0.448289 3.823755
-0.152983 -0.449530 3.834341
-0.141670 -0.450546 3.843010
-0.130461 -0.452109 3.856340
-0.119093 -0.453370 3.867101
-0.107603 -0.454398 3.875867
-0.096080 -0.455513 3.885380
-0.084570 -0.457020 3.898233
-0.072924 -0.458154 3.907904
-0.061227 -0.459353 3.918130
-0.049474 -0.460598 3.928747
-0.037665 -0.461955 3.940328
-0.025743 -0.462550 3.945400
-0.013813 -0.463881 3.956753
-0.001812 -0.464840 3.964937
0.010238 -0.465768 3.972851
0.022337 -0.466723 3.980992
0.034505 -0.467953 3.991489
0.046714 -0.468948 3.999974
0.058969 -0.469896 4.008060
0.071308 -0.471077 4.018135
0.083687 -0.472141 4.027208
0.096094 -0.473067 4.035109
0.108555 -0.474022 4.043252
0.121167 -0.475376 4.054801
0.133643 -0.475998 4.060108
0.146334 -0.477212 4.070464
0.159043 -0.478294 4.079689
0.171900 -0.479631 4.091096
0.184719 -0.480691 4.100140
0.197542 -0.481626 4.108115
0.210413 -0.482558 4.116067
0.223212 -0.483234 4.121827
0.236271 -0.484368 4.131500
0.249349 -0.485427 4.140532
0.262865 -0.487193 4.155602
0.276369 -0.488779 4.169129
0.289546 -0.489672 4.176742
0.302785 -0.490590 4.184577
0.316479 -0.492143 4.197824
0.331240 -0.495171 4.223649
0.339522 -0.488648 4.168008
0.452807 -0.628289 5.359100
2.665537 -3.570345 30.453886
2.851373 -3.691312 31.485689
2.952454 -3.698272 31.545053
3.086067 -3.744263 31.937346
3.210085 -3.776168 32.209488
3.320681 -3.790866 32.334854
3.442294 -3.816937 32.557228
3.558675 -3.835912 32.719086
3.676925 -3.855819 32.888882
3.790815 -3.870222 33.011734
3.905470 -3.884644 33.134750
4.008146 -3.886726 33.152508
4.107161 -3.885243 33.139862
4.206063 -3.883727 33.126930
4.315419 -3.891709 33.195015
4.420753 -3.895783 33.229763
4.518796 -3.893393 33.209373
4.600477 -3.877317 33.072254
4.690439 -3.868759 32.999252
4.774904 -3.856118 32.891430
4.854135 -3.839854 32.752705
4.931361 -3.822689 32.606293
5.011665 -3.808538 32.485592
5.088892 -3.792640 32.349983
5.183479 -3.790036 32.327778
5.269732 -3.781549 32.255383
5.353324 -3.771497 32.169640
5.430405 -3.757299 32.048538
5.520041 -3.752135 32.004494
5.593453 -3.736312 31.869530
5.674728 -3.726191 31.783194
5.749951 -3.712499 31.666412
5.824331 -3.698723 31.548904
5.897434 -3.684594 31.428389
5.975741 -3.674114 31.339001
6.057437 -3.666014 31.269907
6.126483 -3.650625 31.138647
6.215471 -3.647407 31.111198
6.305732 -3.645020 31.090839
6.383262 -3.635454 31.009243
6.461439 -3.626529 30.933109
6.551175 -3.624253 30.913700
6.640743 -3.621950 30.894056
6.730139 -3.619619 30.874176
6.819364 -3.617261 30.854063
6.908415 -3.614876 30.833719
6.997291 -3.612464 30.813147
7.085989 -3.610026 30.792345
7.174315 -3.607463 30.770491
7.262644 -3.604968 30.749207
7.349965 -3.602043 30.724253
7.431215 -3.596252 30.674862
7.503381 -3.586263 30.589659
7.584446 -3.580720 30.542374
7.668701 -3.576798 30.508921
7.731872 -3.563253 30.393387
7.814476 -3.558877 30.356068
7.896234 -3.554223 30.316368
7.985950 -3.553217 30.307785
8.072344 -3.550772 30.286932
-6.719398 -2.552485 22.337215
-6.648916 -2.551444 22.328108
-6.595495 -2.556996 22.376694
-6.542169 -2.562701 22.426617
-6.475303 -2.563166 22.430689
-6.375031 -2.550277 22.317896
-6.282304 -2.540162 22.229378
-6.190655 -2.530268 22.142794
-6.124144 -2.530544 22.145212
-6.063542 -2.533296 22.169291
-5.965575 -2.520323 22.055761
-5.886694 -2.515210 22.011023
-5.824274 -2.517095 22.027512
-5.761714 -2.518961 22.043848
-5.735365 -2.536889 22.200733
-5.861368 -2.623432 22.958092
-5.899502 -2.672256 23.385353
-5.697328 -2.612093 22.858856
-5.486910 -2.546620 22.285894
-5.199350 -2.443264 21.381405
-4.657425 -2.216255 19.394815
-4.464769 -2.151765 18.830448
-4.377453 -2.137028 18.701487
-4.318688 -2.136026 18.692717
-4.282697 -2.146411 18.783600
-4.277064 -2.172497 19.011877
-4.394318 -2.262568 19.800106
-4.749089 -2.479125 21.695234
-4.851822 -2.568351 22.476063
-4.851492 -2.604785 22.794909
-4.855847 -2.644826 23.145308
-4.713792 -2.605126 22.797892
-3.754086 -2.105631 18.426729
-3.632488 -2.068228 18.099405
-3.575986 -2.067309 18.091366
-3.493459 -2.051082 17.949354
-3.873700 -2.310343 20.218197
-9.842533 -5.964713 52.198193
-12.478596 -7.685869 67.260315
-12.859644 -8.052245 70.466530
-8.637804 -5.500121 48.132465
-5.389410 -3.490720 30.547869
-3.274146 -2.157770 18.883003
-3.110741 -2.086591 18.260105
-3.078556 -2.102446 18.398851
-3.038680 -2.113536 18.495901
-8.579569 -6.079743 53.204842
-14.451369 -10.437047 91.336327
-13.874279 -10.216159 89.403297
-13.610568 -10.221816 89.452805
-13.267280 -10.166723 88.970680
-12.994323 -10.164356 88.949966
-12.772829 -10.202998 89.288124
-12.518679 -10.216663 89.407707
-12.334433 -10.289247 90.042900
-12.068737 -10.295634 90.098801
-11.799930 -10.299603 90.133530
-11.541255 -10.312813 90.249138
-11.261390 -10.307270 90.200630
-10.991671 -10.310970 90.233009
-10.805752 -10.395476 90.972534
-10.717843 -10.581174 92.597603
-10.177327 -10.318004 90.294563
-8.811548 -9.180461 80.339737
-6.688405 -7.166673 62.716743
-1.860134 -2.051510 17.953106
-0.361584 -0.410815 3.595106
-0.356336 -0.417444 3.653121
-0.351807 -0.425369 3.722475
-0.340570 -0.425440 3.723092
-0.328557 -0.424513 3.714986
-0.316470 -0.423421 3.705426
-0.304980 -0.423077 3.702414
-0.294053 -0.423518 3.706278
-0.283313 -0.424273 3.712881
-0.272809 -0.425459 3.723261
-0.261941 -0.426155 3.729356
-0.251109 -0.426976 3.736542
-0.240383 -0.428065 3.746064
-0.229809 -0.429542 3.758996
-0.218975 -0.430665 3.768817
-0.208166 -0.431963 3.780180
-0.197390 -0.433483 3.793485
-0.186327 -0.434524 3.802592
-0.175181 -0.435497 3.811106
-0.164027 -0.436583 3.820613
-0.152815 -0.437670 3.830119
-0.141615 -0.438972 3.841520
-0.130332 -0.440230 3.852522
-0.119043 -0.441710 3.865474
-0.107545 -0.442657 3.873769
-0.096069 -0.443935 3.884951
-0.084498 -0.445071 3.894894
-0.072838 -0.446031 3.903291
-0.061163 -0.447255 3.914001
-0.049455 -0.448774 3.927293
-0.037624 -0.449774 3.936049
-0.025737 -0.450727 3.944386
-0.013799 -0.451678 3.952706
-0.001810 -0.452627 3.961010
0.010228 -0.453555 3.969137
0.022324 -0.454643 3.978657
0.034490 -0.455909 3.989739
0.046687 -0.456809 3.997613
0.058938 -0.457764 4.005973
0.071293 -0.459061 4.017315
0.083685 -0.460180 4.027114
0.096100 -0.461124 4.035372
0.108570 -0.462089 4.043819
0.121092 -0.463059 4.052305
0.133641 -0.463944 4.060050
0.146252 -0.464875 4.068195
0.158949 -0.465913 4.077286
0.171925 -0.467560 4.091696
0.184693 -0.468459 4.099563
0.197570 -0.469503 4.108695
0.210338 -0.470178 4.114606
0.223100 -0.470766 4.119754
0.236183 -0.471933 4.129966
0.249370 -0.473181 4.140881
0.262721 -0.474602 4.153322
0.276094 -0.475933 4.164972
0.289016 -0.476405 4.169101
0.302096 -0.477086 4.175055
0.317011 -0.480494 4.204881
0.330684 -0.481828 4.216553
0.343321 -0.481610 4.214647
1.201669 -1.625167 14.222104
2.757034 -3.599434 31.499247
2.878878 -3.632592 31.789413
2.982484 -3.641332 31.865896
3.104325 -3.671088 32.126297
3.223757 -3.696270 32.346672
3.332579 -3.708159 32.450710
3.447000 -3.725417 32.601738
3.568644 -3.749300 32.810745
3.682786 -3.764219 32.941307
3.796185 -3.777610 33.058495
3.901315 -3.782296 33.099495
4.003880 -3.784321 33.117222
4.102137 -3.782276 33.099327
4.206313 -3.785656 33.128899
4.306264 -3.785164 33.124596
4.413502 -3.790953 33.175255
4.511654 -3.788854 33.156891
4.601550 -3.780064 33.079967
4.688695 -3.769438 32.986977
4.773203 -3.757181 32.879711
4.854224 -3.742737 32.753307
4.931138 -3.725768 32.604816
5.013301 -3.713356 32.496193
5.091567 -3.698592 32.366989
5.185167 -3.695314 32.338306
5.268507 -3.684981 32.247883
5.355063 -3.677235 32.180092
5.431462 -3.662915 32.054779
5.510416 -3.650792 31.948687
5.590454 -3.639795 31.852446
5.666750 -3.626775 31.738508
5.739244 -3.611798 31.607447
5.812693 -3.597905 31.485865
5.899336 -3.592496 31.438526
5.971316 -3.578471 31.315794
6.059387 -3.574378 31.279972
6.135617 -3.563534 31.185076
6.217467 -3.556234 31.121189
6.308077 -3.554087 31.102404
6.397938 -3.551588 31.080534
6.485184 -3.547731 31.046782
6.575247 -3.545504 31.027290
6.665140 -3.543249 31.007557
6.752881 -3.539929 30.978502
6.840599 -3.536688 30.950140
6.933788 -3.536325 30.946964
7.022987 -3.533964 30.926302
7.112008 -3.531577 30.905413
7.196723 -3.527141 30.866598
7.284525 -3.524313 30.841850
7.363379 -3.517283 30.780327
7.441103 -3.509896 30.715679
7.527468 -3.506716 30.687857
7.610437 -3.502052 30.647038
7.684628 -3.493510 30.572287
7.760811 -3.486067 30.507147
7.840055 -3.480157 30.455433
7.914127 -3.472117 30.385067
8.000227 -3.469477 30.361969
8.097630 -3.471744 30.381804
-6.776032 -2.507159 22.525482
-6.709298 -2.507760 22.530880
-6.648130 -2.510474 22.555271
-6.587251 -2.513356 22.581160
-6.508057 -2.509236 22.544147
-6.407063 -2.496535 22.430035
-6.317053 -2.487887 22.352335
-6.235197 -2.482297 22.302114
-6.172342 -2.484232 22.319500
-6.118737 -2.489974 22.371090
-6.021778 -2.478005 22.263554
-5.936341 -2.470559 22.196657
-5.873396 -2.472411 22.213291
-5.812599 -2.475220 22.238527
-5.776880 -2.488900 22.361433
-5.835069 -2.543844 22.855082
-5.890378 -2.598840 23.349188
-5.666883 -2.530668 22.736702
-5.438887 -2.458782 22.090841
-5.245426 -2.400909 21.570885
-4.783243 -2.217022 19.918756
-4.488107 -2.106845 18.928879
-4.370222 -2.078097 18.670595
-4.302385 -2.072706 18.622152
-4.258280 -2.078756 18.676512
-4.236014 -2.095774 18.829407
-4.278053 -2.145507 19.276237
-5.031458 -2.558324 22.985178
-5.231389 -2.697368 24.234407
-5.207183 -2.723160 24.466135
-5.213042 -2.765648 24.847874
-4.953694 -2.666620 23.958160
-3.723553 -2.034274 18.276861
-3.635686 -2.016296 18.115343
-3.588893 -2.020895 18.156660
-3.520856 -2.013489 18.090122
-3.458740 -2.009287 18.052374
-3.403324 -2.008906 18.048946
-3.343578 -2.005914 18.022066
-3.242139 -1.977394 17.765831
-3.198094 -1.983507 17.820749
-3.192876 -2.014325 18.097631
-3.185335 -2.044730 18.370808
-3.166421 -2.068787 18.586948
-3.085641 -2.052564 18.441191
-3.730407 -2.527287 22.706324
-14.123834 -9.748684 87.586723
-14.221058 -10.004011 89.880699
-13.855650 -9.937514 89.283257
-13.484056 -9.863840 88.621330
-13.273433 -9.907316 89.011940
-13.042403 -9.937050 89.279083
-12.776915 -9.941235 89.316689
-12.551641 -9.977568 89.643120
-12.337267 -10.024367 90.063583
-12.072607 -10.031503 90.127693
-11.803718 -10.035372 90.162460
-11.534516 -10.039154 90.196434
-11.265010 -10.042848 90.229630
-10.995208 -10.046456 90.262039
-10.729269 -10.053868 90.328636
-10.540521 -10.135897 91.065620
-9.879891 -9.756358 87.655670
-8.388006 -8.512256 76.478073
-6.787941 -7.084460 63.650085
-7.068003 -7.592762 68.216911
-1.257014 -1.391074 12.498055
-0.353957 -0.403890 3.628736
-0.343709 -0.404786 3.636790
-0.338544 -0.411928 3.700951
-0.328485 -0.413399 3.714172
-0.316684 -0.412705 3.707935
-0.304950 -0.412050 3.702049
-0.293831 -0.412209 3.703475
-0.283156 -0.413028 3.710834
-0.272531 -0.413989 3.719474
-0.261852 -0.414950 3.728100
-0.250927 -0.415588 3.733835
-0.240322 -0.416843 3.745113
-0.229545 -0.417909 3.754686
-0.218865 -0.419272 3.766933
-0.208111 -0.420635 3.779185
-0.197296 -0.422027 3.791692
-0.186186 -0.422921 3.799715
-0.175135 -0.424076 3.810094
-0.164034 -0.425265 3.820776
-0.152782 -0.426212 3.829288
-0.141516 -0.427276 3.838846
-0.130274 -0.428608 3.850816
-0.118937 -0.429859 3.862054
-0.107483 -0.430913 3.871520
-0.095946 -0.431852 3.879964
-0.084416 -0.433092 3.891099
-0.072800 -0.434221 3.901244
-0.061113 -0.435286 3.910810
-0.049383 -0.436476 3.921505
-0.037578 -0.437557 3.931220
-0.025704 -0.438457 3.939299
-0.013781 -0.439385 3.947636
-0.001808 -0.440341 3.956227
0.010223 -0.441563 3.967212
0.022322 -0.442802 3.978343
0.034470 -0.443809 3.987388
0.046665 -0.444736 3.995713
0.058916 -0.445711 4.004476
0.071243 -0.446824 4.014477
0.083620 -0.447882 4.023978
0.096078 -0.449047 4.034443
0.108600 -0.450213 4.044928
0.121128 -0.451170 4.053518
0.133685 -0.452044 4.061374
0.146287 -0.452912 4.069174
0.158964 -0.453858 4.077676
0.171836 -0.455184 4.089581
0.184735 -0.456397 4.100486
0.197566 -0.457302 4.108613
0.210406 -0.458118 4.115944
0.223281 -0.458913 4.123088
0.236426 -0.460152 4.134221
0.249689 -0.461482 4.146167
0.263038 -0.462836 4.158335
0.275973 -0.463372 4.163149
0.288722 -0.463561 4.164852
0.301065 -0.463112 4.160811
0.316557 -0.467347 4.198861
0.327149 -0.464299 4.171480
0.332850 -0.454796 4.086099
2.089909 -2.753050 24.734682
2.779547 -3.534597 31.756462
2.902997 -3.567908 32.055744
3.013674 -3.583869 32.199150
3.125063 -3.599648 32.340916
3.237470 -3.615603 32.484264
3.345889 -3.626294 32.580318
3.460192 -3.642565 32.726501
3.573097 -3.656498 32.851681
3.683972 -3.667654 32.951908
3.793285 -3.676706 33.033241
3.900387 -3.683204 33.091625
4.002927 -3.685177 33.109344
4.101812 -3.683769 33.096699
4.205790 -3.686895 33.124779
4.307644 -3.688055 33.135208
4.421670 -3.699346 33.236652
4.520726 -3.697889 33.223560
4.609331 -3.688133 33.135902
4.700727 -3.680979 33.071629
4.780561 -3.665259 32.930397
4.864128 -3.652987 32.820133
4.941384 -3.636562 32.672569
5.017804 -3.620180 32.525383
5.101829 -3.609811 32.432220
5.188377 -3.601585 32.358322
5.282340 -3.598718 32.332558
5.356881 -3.582963 32.191013
5.430376 -3.567087 32.048370
5.505111 -3.552569 31.917933
5.585043 -3.541848 31.821611
5.664689 -3.531314 31.726967
5.739252 -3.518016 31.607491
5.809177 -3.502358 31.466820
5.901191 -3.500309 31.448410
5.973192 -3.486644 31.325632
6.061287 -3.482654 31.289783
6.152602 -3.480608 31.271402
6.231738 -3.471839 31.192621
6.319746 -3.468201 31.159937
6.410356 -3.466078 31.140863
6.503347 -3.465285 31.133736
6.603965 -3.468521 31.162807
6.694249 -3.466314 31.142981
6.784361 -3.464081 31.122915
6.871433 -3.460378 31.089647
6.963214 -3.459115 31.078299
7.053647 -3.457225 31.061317
7.143053 -3.454888 31.040319
7.229130 -3.451022 31.005590
7.306833 -3.443310 30.936298
7.393682 -3.440048 30.906998
7.472523 -3.433190 30.845375
7.557538 -3.429302 30.810446
7.642297 -3.425394 30.775339
7.711946 -3.414890 30.680965
7.790312 -3.408451 30.623114
7.865535 -3.400804 30.554411
7.938931 -3.392555 30.480297
8.022782 -3.388912 30.447567
8.109207 -3.386427 30.425238
-6.856394 -2.469261 22.792629
-6.779866 -2.466578 22.767859
-6.706339 -2.464941 22.752756
-6.638907 -2.465535 22.758238
-6.543465 -2.455630 22.666803
-6.446669 -2.445000 22.568686
-6.357094 -2.436911 22.494017
-6.280796 -2.433790 22.465212
-6.221712 -2.437345 22.498024
-6.184922 -2.449809 22.613073
-6.075041 -2.433277 22.460474
-5.986357 -2.424956 22.383671
-5.924167 -2.427300 22.405308
-5.870726 -2.433325 22.460918
-5.815092 -2.438571 22.509346
-5.833719 -2.475454 22.849794
-5.938363 -2.550163 23.539396
-5.721204 -2.486814 22.954651
-5.445045 -2.395942 22.115852
-5.183237 -2.309196 21.315144
-4.822208 -2.175496 20.081018
-4.501471 -2.056784 18.985243
-4.362884 -2.019300 18.639244
-4.292777 -2.012944 18.580568
-4.242010 -2.015607 18.605150
-4.205753 -2.025329 18.694897
-4.194392 -2.047471 18.899273
-5.329669 -2.637709 24.347494
-5.524540 -2.772580 25.592430
-5.551900 -2.826030 26.085800
-5.627063 -2.905711 26.821297
-5.468891 -2.865472 26.449869
-3.690814 -1.962632 18.116161
-3.635895 -1.962656 18.116383
-3.596806 -1.971356 18.196695
-3.535441 -1.967929 18.165060
-3.471962 -1.963197 18.121384
-3.399234 -1.953000 18.027256
-3.347460 -1.954705 18.042995
-3.291685 -1.954091 18.037329
-3.277883 -1.978795 18.265358
-3.256866 -1.999918 18.460333
-3.208810 -2.004886 18.506195
-3.145530 -2.000350 18.464321
-3.089736 -2.000496 18.465668
-7.497131 -4.943770 45.633701
-14.395924 -9.671589 89.274048
-14.094085 -9.650372 89.078201
-13.736234 -9.589223 88.513763
-13.544264 -9.643745 89.017036
-13.311687 -9.670985 89.268471
-13.046463 -9.675145 89.306877
-12.780897 -9.679224 89.344521
-12.562784 -9.720194 89.722702
-12.341118 -9.760170 90.091698
-12.076378 -9.767119 90.155846
-11.807408 -9.770890 90.190651
-11.538125 -9.774574 90.224655
-11.257930 -9.768969 90.172920
-10.958036 -9.745566 89.956894
-10.670107 -9.731879 89.830559
-10.460611 -9.790886 90.375229
-10.039145 -9.649331 89.068596
-9.476164 -9.360162 86.399406
-9.041870 -9.185267 84.785034
-8.393416 -8.776203 81.009148
-7.789052 -8.389951 77.443832
-1.369094 -1.520585 14.035826
-0.333047 -0.381773 3.523976
-0.331378 -0.392459 3.622611
-0.325066 -0.398190 3.675514
-0.314874 -0.399406 3.686740
-0.304337 -0.400259 3.694607
-0.293097 -0.400218 3.694226
-0.282698 -0.401366 3.704831
-0.272129 -0.402358 3.713986
-0.261445 -0.403258 3.722295
-0.250710 -0.404159 3.730605
-0.240189 -0.405506 3.743038
-0.229345 -0.406413 3.751410
-0.218688 -0.407763 3.763878
-0.207901 -0.409008 3.775363
-0.197146 -0.410463 3.788800
-0.186071 -0.411392 3.797371
-0.175005 -0.412464 3.807264
-0.163960 -0.413740 3.819050
-0.152719 -0.414681 3.827728
-0.141519 -0.415894 3.838928
-0.130161 -0.416820 3.847479
-0.118781 -0.417850 3.856987
-0.107389 -0.419060 3.868155
-0.095918 -0.420217 3.878828
-0.084347 -0.421201 3.887919
-0.072704 -0.422088 3.896104
-0.061043 -0.423193 3.906300
-0.049323 -0.424328 3.916780
-0.037549 -0.425566 3.928205
-0.025684 -0.426446 3.936327
-0.013781 -0.427654 3.947482
-0.001808 -0.428558 3.955821
0.010215 -0.429432 3.963893
0.022292 -0.430418 3.972992
0.034443 -0.431639 3.984259
0.046649 -0.432733 3.994361
0.058906 -0.433752 4.003771
0.071232 -0.434842 4.013831
0.083606 -0.435866 4.023282
0.096004 -0.436738 4.031329
0.108474 -0.437703 4.040234
0.121064 -0.438907 4.051355
0.133726 -0.440129 4.062632
0.146209 -0.440603 4.067007
0.158968 -0.441768 4.077756
0.171749 -0.442825 4.087516
0.184629 -0.443976 4.098145
0.197445 -0.444837 4.106086
0.210378 -0.445844 4.115385
0.223381 -0.446879 4.124937
0.236556 -0.448131 4.136494
0.250018 -0.449771 4.151636
0.263146 -0.450682 4.160045
0.275506 -0.450255 4.156103
0.287541 -0.449358 4.147821
0.299691 -0.448709 4.141827
0.310951 -0.446832 4.124504
0.324456 -0.448201 4.137145
1.191854 -1.585097 14.631310
2.657885 -3.407908 31.456854
2.823519 -3.494792 32.258842
2.920806 -3.494094 32.252392
3.041517 -3.520553 32.496628
3.150920 -3.532674 32.608509
3.261995 -3.545873 32.730347
3.361340 -3.545919 32.730770
3.472315 -3.557879 32.841164
3.580474 -3.566366 32.919510
3.687310 -3.573111 32.981770
3.798594 -3.583696 33.079475
3.904651 -3.588931 33.127796
4.010896 -3.594073 33.175255
4.110792 -3.593412 33.169159
4.210109 -3.592290 33.158798
4.323788 -3.603187 33.259388
4.424998 -3.603435 33.261673
4.531612 -3.607973 33.303562
4.622911 -3.600386 33.233528
4.717913 -3.595946 33.192543
4.800534 -3.582451 33.067978
4.879299 -3.566690 32.922497
4.961129 -3.553757 32.803120
5.038402 -3.538133 32.658901
5.115115 -3.522726 32.516682
5.208724 -3.519317 32.485222
5.285061 -3.504582 32.349209
5.358720 -3.488642 32.202068
5.431244 -3.472546 32.053493
5.504887 -3.457718 31.916630
5.576926 -3.442414 31.775364
5.665884 -3.437896 31.733660
5.741013 -3.425278 31.617189
5.826062 -3.418896 31.558281
5.902998 -3.408036 31.458038
5.993352 -3.405146 31.431358
6.083835 -3.402418 31.406178
6.165920 -3.395150 31.339092
6.245659 -3.386831 31.262302
6.336675 -3.384785 31.243410
6.427526 -3.382711 31.224272
6.518211 -3.380612 31.204897
6.624281 -3.386438 31.258675
6.724242 -3.389021 31.282515
6.814927 -3.386921 31.263134
6.904260 -3.384217 31.238171
6.994411 -3.381981 31.217535
7.086346 -3.380657 31.205311
7.176165 -3.378371 31.184208
7.261625 -3.374119 31.144958
7.350108 -3.371363 31.119520
7.425720 -3.362848 31.040922
7.503491 -3.355512 30.973206
7.589732 -3.352098 30.941694
7.663794 -3.343454 30.861906
7.738775 -3.335415 30.787701
7.822900 -3.331462 30.751213
7.900102 -3.324688 30.688690
7.972596 -3.316114 30.609547
8.054335 -3.311539 30.567316
8.138663 -3.308120 30.535757
-6.917581 -2.423062 22.996033
-6.828396 -2.416191 22.930830
-6.747986 -2.412316 22.894053
-6.673144 -2.410372 22.875601
-6.578635 -2.401208 22.788633
-6.482109 -2.391106 22.692757
-6.391232 -2.382893 22.614811
-6.316211 -2.380477 22.591885
-6.270773 -2.389280 22.675432
-6.256736 -2.410376 22.875639
-6.149314 -2.395565 22.735075
-6.036745 -2.378390 22.572081
-5.972743 -2.380175 22.589022
-5.908596 -2.381944 22.605804
-5.844772 -2.383885 22.624231
-5.860936 -2.418886 22.956400
-6.088049 -2.542835 24.132744
-5.926109 -2.505327 23.776772
-5.494191 -2.351352 22.315470
-5.164254 -2.237723 21.237078
-4.812539 -2.111668 20.040754
-4.511688 -2.004990 19.028330
-4.355638 -1.960731 18.608288
-4.277883 -1.951017 18.516102
-4.232738 -1.956115 18.564484
-4.176930 -1.956356 18.566774
-4.149808 -1.970224 18.698385
-5.058462 -2.434917 23.108541
-5.550344 -2.709236 25.711966
-5.681434 -2.812756 26.694424
-5.765339 -2.895572 27.480389
-4.611039 -2.349820 22.300934
-3.698966 -1.913092 18.156174
-3.658366 -1.920697 18.228346
-3.632117 -1.936185 18.375338
-3.556325 -1.925334 18.272358
-3.483186 -1.915599 18.179968
-3.424673 -1.913724 18.162169
-3.365311 -1.911305 18.139212
-3.341857 -1.929538 18.312252
-3.387414 -1.988908 18.875700
-3.401594 -2.031579 19.280674
-3.228502 -1.961940 18.619761
-3.131754 -1.937040 18.383453
-3.059235 -1.926495 18.283377
-14.217039 -9.118245 86.536583
-14.473185 -9.457173 89.753174
-14.093879 -9.385915 89.076897
-13.809163 -9.376095 88.983704
-13.580670 -9.404819 89.256302
-13.315719 -9.408950 89.295509
-13.050416 -9.412999 89.333939
-12.784775 -9.416970 89.371628
-12.567793 -9.457732 89.758476
-12.344867 -9.495727 90.119064
-12.080051 -9.502492 90.183266
-11.810999 -9.506160 90.218079
-11.541637 -9.509747 90.252121
-11.218779 -9.468359 89.859329
-10.916385 -9.442611 89.614967
-10.648233 -9.445923 89.646400
-10.384221 -9.453177 89.715248
-10.135779 -9.475378 89.925941
-9.961701 -9.570249 90.826317
-9.817778 -9.700312 92.060677
-9.348785 -9.507406 90.229904
-9.048932 -9.480060 89.970383
-10.873774 -11.746173 111.476891
-1.370445 -1.527919 14.500696
-0.323274 -0.372375 3.534016
-0.315593 -0.375997 3.568395
-0.311470 -0.384268 3.646887
-0.302536 -0.386993 3.672749
-0.292485 -0.388443 3.686509
-0.282218 -0.389709 3.698532
-0.271693 -0.390712 3.708042
-0.261050 -0.391621 3.716677
-0.250558 -0.392851 3.728351
-0.240000 -0.394088 3.740091
-0.229214 -0.395056 3.749272
-0.218557 -0.396357 3.761621
-0.207808 -0.397627 3.773670
-0.197104 -0.399135 3.787990
-0.186024 -0.400023 3.796413
-0.174988 -0.401129 3.806906
-0.163853 -0.402147 3.816570
-0.152602 -0.403012 3.824784
-0.141320 -0.403934 3.833527
-0.130083 -0.405160 3.845168
-0.118778 -0.406395 3.856884
-0.107322 -0.407327 3.865727
-0.095809 -0.408243 3.874424
-0.084290 -0.409389 3.885298
-0.072689 -0.410446 3.895331
-0.061025 -0.411484 3.905180
-0.049310 -0.412593 3.915711
-0.037521 -0.413600 3.925262
-0.025669 -0.414516 3.933956
-0.013772 -0.415695 3.945152
-0.001807 -0.416570 3.953456
0.010217 -0.417760 3.964747
0.022296 -0.418711 3.973768
0.034426 -0.419610 3.982300
0.046634 -0.420745 3.993078
0.058865 -0.421580 4.000998
0.071214 -0.422827 4.012837
0.083602 -0.423907 4.023086
0.096006 -0.424784 4.031410
0.108475 -0.425720 4.040294
0.120986 -0.426613 4.048766
0.133517 -0.427403 4.056262
0.146106 -0.428231 4.064121
0.158881 -0.429434 4.075538
0.171743 -0.430680 4.087366
0.184554 -0.431641 4.096479
0.197372 -0.432494 4.104576
0.210436 -0.433752 4.116517
0.223587 -0.435041 4.128751
0.237025 -0.436720 4.144686
0.250095 -0.437587 4.152915
0.262738 -0.437659 4.153600
0.274251 -0.435929 4.137179
0.286224 -0.435048 4.128820
0.296074 -0.431151 4.091834
0.307416 -0.429652 4.077607
0.565085 -0.759224 7.205400
2.607178 -3.372427 32.005974
2.717247 -3.388595 32.159416
2.852378 -3.433814 32.588562
2.934257 -3.414042 32.400921
3.054494 -3.438736 32.635277
3.165454 -3.451764 32.758915
3.264910 -3.451835 32.759594
3.369874 -3.457554 32.813873
3.476055 -3.464157 32.876537
3.587459 -3.475452 32.983730
3.696008 -3.483443 33.059566
3.799752 -3.486603 33.089558
3.910426 -3.495796 33.176800
4.013228 -3.497665 33.194546
4.117718 -3.500879 33.225048
4.225699 -3.506836 33.281582
4.327166 -3.507236 33.285374
4.443651 -3.519512 33.401878
4.559643 -3.530859 33.509567
4.659308 -3.529343 33.495182
4.756207 -3.525842 33.461956
4.835956 -3.510039 33.311977
4.914677 -3.494153 33.161209
4.987728 -3.474953 32.978992
5.063835 -3.458596 32.823753
5.139569 -3.442620 32.672138
5.221766 -3.431495 32.566559
5.287739 -3.410321 32.365604
5.360176 -3.394011 32.210815
5.452705 -3.390780 32.180149
5.527208 -3.376649 32.046043
5.617994 -3.372783 32.009354
5.692621 -3.359513 31.883411
5.770744 -3.348714 31.780924
5.856682 -3.342731 31.724142
5.942750 -3.337014 31.669886
6.022851 -3.328181 31.586060
6.120581 -3.329215 31.595869
6.202990 -3.322011 31.527504
6.283565 -3.314060 31.452038
6.362492 -3.305489 31.370699
6.453711 -3.303463 31.351473
6.544763 -3.301412 31.332008
6.640718 -3.301858 31.336235
6.752683 -3.310138 31.414824
6.844510 -3.308455 31.398848
6.935241 -3.306295 31.378344
7.025513 -3.303978 31.356354
7.116167 -3.301899 31.336630
7.206361 -3.299665 31.315424
7.295198 -3.296876 31.288956
7.383976 -3.294132 31.262915
7.457837 -3.284887 31.175179
7.535320 -3.277450 31.104589
7.623090 -3.274615 31.077688
7.697105 -3.266013 30.996048
7.771316 -3.257701 30.917164
7.857573 -3.254576 30.887510
7.934759 -3.247812 30.823318
8.006341 -3.238939 30.739107
8.089327 -3.234830 30.700113
8.175112 -3.231922 30.672510
-6.908230 -2.351643 22.964949
-6.857322 -2.358096 23.027967
-6.795811 -2.360999 23.056313
-6.737939 -2.365239 23.097719
-6.646079 -2.357512 23.022263
-6.535817 -2.343024 22.880777
-6.433119 -2.330965 22.763021
-6.356649 -2.328252 22.736525
-6.323341 -2.341461 22.865519
-6.332857 -2.370997 23.153950
-6.226227 -2.357223 23.019438
-6.111205 -2.339923 22.850492
-6.023103 -2.332651 22.779486
-5.958415 -2.334384 22.796410
-5.896927 -2.337427 22.826118
-5.925870 -2.376812 23.210735
-6.404183 -2.599550 25.385885
-6.554287 -2.692865 26.297152
-5.845644 -2.431311 23.742945
-5.216465 -2.196693 21.451786
-4.825256 -2.057624 20.093708
-4.513660 -1.949380 19.036648
-4.356896 -1.906065 18.613663
-4.278546 -1.896368 18.518969
-4.233391 -1.901323 18.567350
-4.166895 -1.896696 18.522169
-4.114155 -1.898290 18.537737
-4.903825 -2.294008 22.402111
-5.679832 -2.694367 26.311817
-5.838263 -2.809003 27.431288
-5.300444 -2.587118 25.264473
-3.789991 -1.877018 18.329998
-3.734249 -1.876952 18.329359
-3.703757 -1.889768 18.454514
-3.666538 -1.899493 18.549479
-3.545412 -1.865374 18.216291
-3.484680 -1.862453 18.187765
-3.430781 -1.863148 18.194559
-3.385768 -1.868772 18.249474
-3.394905 -1.904967 18.602938
-5.299388 -3.023893 29.529799
-4.841022 -2.809847 27.439533
-3.219760 -1.901527 18.569345
-3.114993 -1.872416 18.285065
-3.012574 -1.843687 18.004511
-14.658950 -9.136911 89.226418
-14.287489 -9.072929 88.601608
-14.035094 -9.083554 88.705360
-13.815656 -9.116341 89.025543
-13.556438 -9.123663 89.097046
-13.319715 -9.146730 89.322311
-13.054338 -9.150670 89.360786
-12.788620 -9.154533 89.398506
-12.563067 -9.187938 89.724724
-12.304336 -9.198021 89.823189
-12.083692 -9.237677 90.210449
-11.814471 -9.241174 90.244598
-11.500112 -9.208693 89.927406
-11.219033 -9.201930 89.861366
-10.919687 -9.179475 89.642075
-10.651455 -9.182695 89.673523
-10.382941 -9.185836 89.704193
-10.114206 -9.188944 89.734543
-9.922314 -9.263969 90.467201
-9.650883 -9.266888 90.495712
-9.477321 -9.366705 91.470474
-9.322140 -9.491259 92.686798
-8.580319 -9.007700 87.964607
-9.565484 -10.364303 101.212502
-0.852484 -0.954311 9.319312
-0.313881 -0.363427 3.549039
-0.306650 -0.367667 3.590453
-0.300156 -0.373136 3.643861
-0.291668 -0.376450 3.676216
-0.282298 -0.378843 3.699589
-0.271712 -0.379734 3.708292
-0.261347 -0.381026 3.720903
-0.250862 -0.382251 3.732864
-0.240050 -0.383070 3.740863
-0.229271 -0.384027 3.750208
-0.218550 -0.385183 3.761499
-0.207871 -0.386547 3.774822
-0.196971 -0.387635 3.785447
-0.185892 -0.388483 3.793726
-0.174932 -0.389708 3.805688
-0.163857 -0.390831 3.816655
-0.152620 -0.391710 3.825237
-0.141342 -0.392620 3.834128
-0.130114 -0.393844 3.846076
-0.118803 -0.395033 3.857688
-0.107336 -0.395907 3.866221
-0.095833 -0.396848 3.875420
-0.084312 -0.397965 3.886320
-0.072673 -0.398797 3.894452
-0.061044 -0.400019 3.906378
-0.049325 -0.401097 3.916912
-0.037532 -0.402068 3.926392
-0.025677 -0.402966 3.935161
-0.013777 -0.404113 3.946362
-0.001807 -0.404936 3.954399
0.010220 -0.406118 3.965939
0.022303 -0.407044 3.974987
0.034435 -0.407898 3.983324
0.046646 -0.409004 3.994128
0.058881 -0.409818 4.002075
0.071233 -0.411031 4.013918
0.083627 -0.412096 4.024319
0.096033 -0.412941 4.032570
0.108508 -0.413859 4.041532
0.121016 -0.414701 4.049756
0.133549 -0.415466 4.057229
0.146151 -0.416300 4.065373
0.158930 -0.417469 4.076794
0.171837 -0.418782 4.089612
0.184611 -0.419614 4.097738
0.197539 -0.420670 4.108047
0.210713 -0.422094 4.121951
0.223955 -0.423486 4.135544
0.237173 -0.424688 4.147284
0.249775 -0.424719 4.147593
0.262306 -0.424634 4.146761
0.274296 -0.423722 4.137851
0.284406 -0.420112 4.102604
0.297007 -0.420330 4.104732
0.494875 -0.672171 6.564084
2.766459 -3.612224 35.275139
2.594000 -3.260891 31.844198
2.740537 -3.321396 32.435062
2.827120 -3.307564 32.299984
2.943997 -3.328913 32.508472
3.056995 -3.344635 32.662006
3.167465 -3.356690 32.779728
3.265901 -3.355647 32.769535
3.371369 -3.361677 32.828423
3.477189 -3.367702 32.887264
3.588545 -3.378603 32.993713
3.697126 -3.386370 33.069569
3.804200 -3.392383 33.128288
3.915163 -3.401466 33.216988
4.019363 -3.404364 33.245289
4.129706 -3.412196 33.321770
4.229159 -3.410872 33.308834
4.345410 -3.422840 33.425713
4.462226 -3.434697 33.541504
4.636323 -3.489134 34.073101
4.781997 -3.520272 34.377182
4.869607 -3.508249 34.259773
4.917907 -3.469000 33.876492
4.971239 -3.434835 33.542850
5.029410 -3.405318 33.254597
5.106090 -3.389246 33.097652
5.181874 -3.373212 32.941071
5.246521 -3.350671 32.720951
5.299679 -3.321767 32.438683
5.403405 -3.325034 32.470589
5.520977 -3.336552 32.583069
5.613251 -3.332645 32.544914
5.684678 -3.316710 32.389297
5.747922 -3.296623 32.193142
5.818591 -3.281395 32.044430
5.906022 -3.275965 31.991404
5.992321 -3.270092 31.934055
6.081190 -3.265787 31.892015
6.186434 -3.270273 31.935822
6.279628 -3.268348 31.917027
6.348077 -3.253799 31.774948
6.413371 -3.238092 31.621561
6.481803 -3.224410 31.487942
6.573227 -3.222396 31.468277
6.669019 -3.222550 31.469782
6.782032 -3.230904 31.551361
6.873359 -3.228838 31.531191
6.964469 -3.226729 31.510588
7.055402 -3.224595 31.489752
7.146153 -3.222437 31.468674
7.238287 -3.220950 31.454159
7.326912 -3.217962 31.424976
7.417103 -3.215729 31.403168
7.504722 -3.212451 31.371164
7.578362 -3.203347 31.282259
7.656586 -3.196382 31.214241
7.745654 -3.194059 31.191557
7.819264 -3.185495 31.107918
7.892393 -3.176941 31.024384
7.980531 -3.174559 31.001125
8.068485 -3.172160 30.977699
8.156217 -3.169730 30.953970
8.212433 -3.155247 30.812538
-6.982175 -2.307942 23.210764
-6.943094 -2.318407 23.316002
-6.895111 -2.326084 23.393209
-6.841634 -2.332048 23.453188
-6.767854 -2.331143 23.444096
-6.646298 -2.313589 23.267555
-6.525463 -2.295912 23.089773
-6.433000 -2.287941 23.009617
-6.403255 -2.302347 23.154491
-6.435956 -2.339774 23.530895
-6.370288 -2.341878 23.552055
-6.295640 -2.340691 23.540117
-6.256699 -2.352905 23.662951
-6.169823 -2.347166 23.605238
-6.075899 -2.338580 23.518888
-6.071764 -2.364761 23.782181
-6.473628 -2.551595 25.661161
-7.191751 -2.869151 28.854790
-6.778310 -2.737532 27.531109
-5.777173 -2.362317 23.757601
-4.922108 -2.038104 20.497026
-4.526975 -1.898477 19.092806
-4.358102 -1.851346 18.618816
-4.279731 -1.841928 18.524101
-4.226065 -1.843033 18.535215
-4.151222 -1.834808 18.452499
-4.096217 -1.835247 18.456913
-4.954329 -2.250476 22.632832
-5.758413 -2.652490 26.675844
-5.061095 -2.364518 23.779737
-3.881706 -1.839738 18.502081
-3.805612 -1.830140 18.405546
-3.781436 -1.845594 18.560974
-3.810057 -1.887675 18.984171
-3.648531 -1.835393 18.458376
-3.517924 -1.797277 18.075054
-3.466750 -1.799179 18.094183
-3.414227 -1.800431 18.106771
-3.359369 -1.800472 18.107182
-4.702759 -2.562372 25.769541
-7.522845 -4.168237 41.919575
-4.305597 -2.426658 24.404675
-3.217369 -1.845055 18.555553
-3.104448 -1.812005 18.223166
-4.272987 -2.539281 25.537315
-14.160737 -8.570615 86.193886
-14.314895 -8.826924 88.771561
-14.023458 -8.813029 88.631821
-13.819596 -8.854703 89.050934
-13.561872 -8.862839 89.132759
-13.321813 -8.883086 89.336380
-13.058072 -8.888054 89.386345
-12.792279 -8.891807 89.424088
-12.526150 -8.895484 89.461067
-12.259885 -8.899225 89.498688
-12.040004 -8.937567 89.884293
-11.771542 -8.940788 89.916687
-11.500097 -8.941843 89.927292
-11.190847 -8.912839 89.635605
-10.922829 -8.916047 89.667870
-10.654522 -8.919177 89.699348
-10.387599 -8.923661 89.744438
-10.158562 -8.961808 90.128082
-9.925177 -8.998123 90.493301
-9.653669 -9.000961 90.521835
-9.381958 -9.003768 90.550072
-9.316294 -9.210453 92.628677
-8.925033 -9.098083 91.498589
-8.593527 -9.041368 90.928207
-7.784996 -8.462361 85.105186
-0.829503 -0.932608 9.379158
-0.302059 -0.351669 3.536699
-0.295322 -0.356488 3.585171
-0.290366 -0.363909 3.659799
-0.281590 -0.366943 3.690310
-0.272267 -0.369484 3.715870
-0.261657 -0.370424 3.725323
-0.250935 -0.371282 3.733950
-0.240120 -0.372078 3.741951
-0.229294 -0.372935 3.750570
-0.218459 -0.373866 3.759935
-0.207773 -0.375170 3.773046
-0.196830 -0.376133 3.782732
-0.185850 -0.377139 3.792857
-0.174751 -0.378024 3.801749
-0.163665 -0.379062 3.812188
-0.152531 -0.380138 3.823012
-0.141362 -0.381296 3.834659
-0.130025 -0.382170 3.843453
-0.118724 -0.383333 3.855146
-0.107341 -0.384455 3.866430
-0.095861 -0.385461 3.876550
-0.084284 -0.386306 3.885041
