ply
format ascii 1.0
comment generated by convert_depth_to_ply.py
element vertex 1480
property float x
property float y
property float z
end_header
43.347767 -19.351349 167.307983
43.702223 -19.374324 167.506622
44.119688 -19.424724 167.942368
44.401931 -19.415306 167.860947
44.686471 -19.407015 167.789261
44.970278 -19.398519 167.715805
45.294881 -19.407617 167.794464
45.698940 -19.450412 168.164459
46.157224 -19.515567 168.727783
46.459551 -19.514360 168.717346
46.743864 -19.505652 168.642059
47.025249 -19.495843 168.557251
47.671182 -19.636322 169.771805
47.962566 -19.629894 169.716232
48.432453 -19.696141 170.288986
48.908260 -19.763942 170.875183
-50.883630 -19.924460 174.980835
-50.784379 -20.010064 175.732635
-50.287666 -19.939153 175.109879
-49.599597 -19.790989 173.808670
-48.939007 -19.651969 172.587769
-48.449445 -19.580283 171.958206
-47.984210 -19.517566 171.407410
-47.538453 -19.462007 170.919479
-47.039682 -19.383875 170.233307
-46.754621 -19.393358 170.316589
-46.443738 -19.392185 170.306290
-45.819228 -19.259170 169.138123
-45.535067 -19.268387 169.219070
-45.219382 -19.264299 169.183167
-44.757168 -19.197306 168.594818
-44.328757 -19.143992 168.126602
-44.043012 -19.151979 168.196747
-43.750902 -19.157290 168.243393
-43.303531 -19.094215 167.689453
-42.881714 -19.041598 167.227356
-42.567634 -19.036413 167.181824
-42.282331 -19.044115 167.249466
-41.998740 -19.052705 167.324905
-41.713892 -19.060845 167.396393
-41.292617 -19.006310 166.917450
-40.981923 -19.002244 166.881744
-40.562962 -18.947545 166.401367
-40.254032 -18.943810 166.368561
-39.969615 -18.951641 166.437332
-39.684170 -18.959099 166.502838
-39.399066 -18.966836 166.570786
-39.113616 -18.974525 166.638306
-38.697110 -18.918262 166.144196
-38.343293 -18.892006 165.913605
-37.957057 -18.849236 165.537994
-37.671904 -18.856382 165.600754
-37.386974 -18.863756 165.665512
-37.101277 -18.870859 165.727890
-36.815677 -18.878127 165.791718
-36.529745 -18.885342 165.855087
-36.172387 -18.855446 165.592529
-35.816283 -18.825709 165.331375
-35.391989 -18.759327 164.748398
-35.106542 -18.766039 164.807343
-34.821241 -18.772944 164.867981
-34.535618 -18.779793 164.928131
-34.249336 -18.786401 164.986160
-33.981428 -18.803291 165.134491
-33.688295 -18.806399 165.161789
-33.389240 -18.806227 165.160278
-33.102085 -18.812815 165.218140
-32.814627 -18.819350 165.275528
-32.526611 -18.825681 165.331131
-32.238568 -18.832115 165.387634
-31.949747 -18.838210 165.441162
-31.575858 -18.793788 165.051041
-31.249873 -18.777303 164.906265
-30.869049 -18.727231 164.466522
-30.561229 -18.720905 164.410965
-30.266124 -18.722319 164.423386
-29.977845 -18.728027 164.473511
-29.689768 -18.733976 164.525757
-29.401413 -18.739868 164.577499
-29.112659 -18.745624 164.628052
-28.823771 -18.751412 164.678879
-28.534144 -18.756834 164.726501
-28.174807 -18.716065 164.368454
-27.846049 -18.694954 164.183060
-27.465492 -18.638238 163.684967
-27.161782 -18.633003 163.638992
-26.873585 -18.638412 163.686493
-26.584693 -18.643454 163.730774
-26.296001 -18.648752 163.777298
-26.007064 -18.653994 163.823334
-25.646498 -18.607388 163.414032
-25.329293 -18.591521 163.274689
-24.943783 -18.524554 162.686569
-24.655080 -18.528740 162.723328
-24.367210 -18.533660 162.766541
-24.079114 -18.538527 162.809280
-23.790787 -18.543334 162.851501
-23.501139 -18.547219 162.885620
-23.120642 -18.478595 162.282944
-22.745706 -18.412707 161.704300
-22.458738 -18.417240 161.744110
-22.171575 -18.421731 161.783554
-21.884202 -18.426165 161.822495
-21.596309 -18.430276 161.858597
-21.308531 -18.434599 161.896561
-20.955510 -18.381813 161.432983
-20.643595 -18.364101 161.277435
-20.284853 -18.303629 160.746353
-19.998398 -18.307573 160.780991
-19.711881 -18.311576 160.816147
-19.425038 -18.315391 160.849655
-19.138151 -18.319280 160.883804
-18.851080 -18.323111 160.917450
-18.534851 -18.298275 160.699341
-18.205024 -18.259010 160.354507
-17.918517 -18.262626 160.386261
-17.614378 -18.248094 160.258636
-17.277338 -18.198422 159.822403
-16.991445 -18.201848 159.852493
-16.705342 -18.205165 159.881622
-16.419154 -18.208504 159.910950
-16.132717 -18.211682 159.938858
-15.846220 -18.214907 159.967178
-15.559571 -18.218074 159.994995
-15.272687 -18.221080 160.021393
-14.985743 -18.224131 160.048187
-14.698656 -18.227123 160.074463
-14.363154 -18.168992 159.563950
-14.068921 -18.161752 159.500366
-13.782512 -18.164520 159.524673
-13.495958 -18.167211 159.548309
-13.209316 -18.169899 159.571915
-12.922520 -18.172492 159.594681
-12.592476 -18.112994 159.072159
-12.300439 -18.106661 159.016541
-12.014374 -18.109025 159.037308
-11.728246 -18.111411 159.058258
-11.442006 -18.113738 159.078690
-11.155609 -18.115928 159.097931
-10.869154 -18.118140 159.117355
-10.582570 -18.120251 159.135895
-10.278482 -18.091670 158.884888
-9.979211 -18.070167 158.696045
-9.684351 -18.055614 158.568237
-9.398503 -18.057489 158.584702
-9.090701 -18.015972 158.220093
-8.792147 -17.990680 157.997971
-8.507156 -17.992374 158.012848
-8.222088 -17.994017 158.027283
-7.936948 -17.995614 158.041306
-7.651723 -17.997133 158.054642
-7.366427 -17.998594 158.067474
-7.081064 -18.000005 158.079865
-6.795637 -18.001363 158.091797
-6.510141 -18.002651 158.103104
-6.210805 -17.964027 157.763901
-5.921532 -17.952188 157.659927
-5.631263 -17.935981 157.517593
-5.346653 -17.937030 157.526810
-5.061995 -17.938029 157.535583
-4.777288 -17.938962 157.543777
-4.478252 -17.882795 157.050507
-4.191342 -17.870718 156.944443
-3.907621 -17.871478 156.951111
-3.623865 -17.872176 156.957245
-3.340076 -17.872821 156.962906
-3.056256 -17.873406 156.968048
-2.772409 -17.873929 156.972641
-2.488536 -17.874396 156.976746
-2.204642 -17.874803 156.980316
-1.920728 -17.875152 156.983383
-1.636798 -17.875444 156.985947
-1.352855 -17.875675 156.987976
-1.068900 -17.875849 156.989502
-0.784937 -17.875967 156.990540
-0.500969 -17.876024 156.991043
-0.216999 -17.876023 156.991028
0.066971 -17.875965 156.990524
0.350948 -17.876302 156.993484
0.635480 -17.891988 157.131241
0.919692 -17.891755 157.129196
1.203892 -17.891462 157.126617
1.486721 -17.874787 156.980179
1.770631 -17.874376 156.976562
2.054715 -17.875590 156.987228
2.347542 -17.943332 157.582153
2.632495 -17.942743 157.576981
2.917420 -17.942097 157.571304
3.192743 -17.887765 157.094147
3.473579 -17.870680 156.944107
3.757293 -17.869863 156.936935
4.041670 -17.872096 156.956543
4.341526 -17.937986 157.535202
4.626221 -17.936982 157.526382
4.910873 -17.935931 157.517151
5.195473 -17.934820 157.507401
5.475870 -17.920067 157.377838
5.751852 -17.893043 157.140503
6.048938 -17.931119 157.474899
6.339088 -17.946135 157.606766
6.629674 -17.961042 157.737686
6.914689 -17.960246 157.730698
7.214146 -17.995539 158.040649
7.499350 -17.993943 158.026627
7.784480 -17.992294 158.012146
8.069537 -17.990598 157.997253
8.354504 -17.988824 157.981674
8.639396 -17.987014 157.965775
8.924195 -17.985130 157.949234
9.208913 -17.983205 157.932327
9.493528 -17.981200 157.914719
9.778049 -17.979141 157.896637
10.066644 -17.984475 157.943481
10.370721 -18.016413 158.223969
10.672633 -18.042974 158.457230
10.984006 -18.083723 158.815094
11.287001 -18.108953 159.036667
11.573109 -18.106506 159.015182
11.859153 -18.104082 158.993896
12.145025 -18.101518 158.971375
12.430777 -18.098896 158.948349
12.716468 -18.096306 158.925598
13.013841 -18.110087 159.046631
13.339385 -18.161627 159.499268
13.625770 -18.158799 159.474426
13.911992 -18.155875 159.448746
14.206268 -18.163366 159.514542
14.540785 -18.220986 160.020569
14.827702 -18.217874 159.993240
15.114533 -18.214776 159.966034
15.401185 -18.211585 159.938004
15.687654 -18.208297 159.909134
15.974066 -18.205064 159.880737
16.260224 -18.201662 159.850861
16.610984 -18.269430 160.446014
16.951027 -18.323286 160.918991
17.252093 -18.333904 161.012238
17.539923 -18.330335 160.980896
17.827520 -18.326645 160.948486
18.114918 -18.322871 160.915344
18.402236 -18.319137 160.882553
18.689303 -18.315273 160.848618
18.976158 -18.311324 160.813934
19.326347 -18.367685 161.308914
19.625972 -18.375030 161.373413
19.913404 -18.370910 161.337234
20.200623 -18.366716 161.300400
20.561386 -18.428556 161.843491
20.856064 -18.430262 161.858475
21.143815 -18.425884 161.820023
21.431384 -18.421469 161.781250
21.718718 -18.416974 161.741776
22.005840 -18.412420 161.701782
22.293104 -18.408104 161.663879
22.666255 -18.473900 162.241714
22.955793 -18.470738 162.213943
23.334152 -18.538221 162.806595
23.622437 -18.533353 162.763840
23.910901 -18.528743 162.723358
24.198733 -18.523762 162.679611
24.486330 -18.518723 162.635361
24.773719 -18.513648 162.590790
25.158931 -18.580938 163.181747
25.446945 -18.575716 163.135880
25.835873 -18.643433 163.730591
26.124521 -18.638073 163.683517
26.412989 -18.632706 163.636383
26.701144 -18.627240 163.588379
26.989046 -18.621718 163.539886
27.277143 -18.616450 163.493622
27.569011 -18.613841 163.470703
27.960664 -18.677945 164.033676
28.248765 -18.672254 163.983704
28.536491 -18.666437 163.932617
28.849682 -18.677225 164.027359
29.225535 -18.727949 164.472824
29.513568 -18.721941 164.420059
29.801492 -18.715985 164.367752
30.088976 -18.709872 164.314072
30.376178 -18.703706 164.259918
30.663569 -18.697774 164.207825
30.950196 -18.691495 164.152679
31.245892 -18.690760 164.146225
31.646203 -18.752028 164.684296
31.943385 -18.751615 164.680664
32.284444 -18.776728 164.901215
32.633657 -18.806081 165.158997
32.920762 -18.799433 165.100616
33.207872 -18.792909 165.043320
33.494379 -18.786163 164.984070
33.780575 -18.779362 164.924347
34.066457 -18.772508 164.864151
34.352484 -18.765852 164.805695
34.773293 -18.832304 165.389297
35.005070 -18.796122 165.071533
35.345503 -18.818401 165.267197
35.717243 -18.856836 165.604736
36.057029 -18.877901 165.789734
36.342904 -18.870626 165.725845
36.628953 -18.863560 165.663788
36.914179 -18.856188 165.599045
37.199068 -18.848764 165.533844
37.483621 -18.841289 165.468201
37.869664 -18.884543 165.848068
38.201040 -18.900071 165.984436
38.636940 -18.966666 166.569290
38.922359 -18.958933 166.501373
39.207425 -18.951147 166.432999
39.492515 -18.943492 166.365768
39.776865 -18.935600 166.296463
40.060866 -18.927662 166.226746
40.370723 -18.931967 166.264557
40.787596 -18.986023 166.739288
41.109986 -18.995628 166.823639
41.517504 -19.044141 167.249695
41.802496 -19.036156 167.179565
42.085953 -19.027592 167.104355
42.370858 -19.019800 167.035919
42.652918 -19.010850 166.957321
42.937101 -19.002965 166.888077
43.356294 -19.054526 167.340897
43.672091 -19.060246 167.391129
43.956302 -19.052196 167.320435
44.389475 -19.108381 167.813858
44.695221 -19.109321 167.822113
44.979079 -19.100953 167.748627
45.260541 -19.091687 167.667252
45.702452 -19.149774 168.177383
46.003622 -19.148511 168.166290
46.329715 -19.157570 168.245850
46.752970 -19.206426 168.674911
47.034402 -19.196764 168.590057
47.671765 -19.331562 169.773880
47.971889 -19.328754 169.749222
48.441853 -19.393978 170.322037
48.917742 -19.460735 170.908310
-50.893640 -19.613963 175.015259
-50.793763 -19.697998 175.765106
-50.142359 -19.567861 174.603897
-49.608781 -19.482347 173.840851
-48.939847 -19.342246 172.590729
-48.458430 -19.274933 171.990097
-47.993112 -19.213195 171.439209
-47.503907 -19.141029 170.795273
-47.048431 -19.081598 170.264969
-46.763329 -19.090938 170.348312
-46.324258 -19.037128 169.868164
-45.827768 -18.958845 169.169647
-45.543567 -18.967924 169.250656
-45.080615 -18.902175 168.663986
-44.622010 -18.837366 168.085693
-44.337053 -18.845477 168.158066
-44.051263 -18.853343 168.228256
-43.730892 -18.846416 168.166443
-43.167410 -18.733886 167.162338
-42.860049 -18.731704 167.142868
-42.575634 -18.739590 167.213242
-42.290285 -18.747176 167.280930
-41.865208 -18.692484 166.792908
-41.559101 -18.690502 166.775223
-41.274143 -18.698072 166.842773
-40.948742 -18.687297 166.746628
-40.545752 -18.640691 166.330765
-40.261645 -18.648453 166.400024
-39.977182 -18.656166 166.468842
-39.691680 -18.663507 166.534348
-39.406533 -18.671128 166.602356
-39.072703 -18.655623 166.464005
-38.683371 -18.613171 166.085205
-38.336064 -18.590435 165.882324
-37.964272 -18.555372 165.569458
-37.679072 -18.562410 165.632263
-37.394095 -18.569673 165.697067
-37.108345 -18.576665 165.759460
-36.822701 -18.583825 165.823349
-36.536722 -18.590932 165.886765
-36.179297 -18.561502 165.624161
-35.764716 -18.502013 165.093338
-35.398758 -18.466887 164.779907
-35.113264 -18.473498 164.838898
-34.827909 -18.480295 164.899551
-34.542241 -18.487043 164.959763
-34.255909 -18.493550 165.017822
-33.969631 -18.500200 165.077164
-33.682565 -18.506536 165.133698
-33.395659 -18.513073 165.192032
-33.108453 -18.519561 165.249924
-32.820947 -18.525998 165.307358
-32.532882 -18.532235 165.363007
-32.244782 -18.538567 165.419510
-31.854856 -18.485926 164.949799
-31.482080 -18.442337 164.560852
-31.140890 -18.416596 164.331161
-30.846845 -18.418508 164.348221
-30.559559 -18.424532 164.401978
-30.271980 -18.430497 164.455200
-29.983652 -18.436119 164.505371
-29.695521 -18.441976 164.557632
-29.407115 -18.447780 164.609421
-29.118309 -18.453449 164.660004
-28.829366 -18.459147 164.710846
-28.466075 -18.416862 164.333542
-28.140078 -18.398069 164.165848
-27.763390 -18.345379 163.695694
-27.455061 -18.337210 163.622803
-27.167073 -18.342597 163.670868
-26.878823 -18.347923 163.718399
-26.589876 -18.352888 163.762695
-26.301132 -18.358105 163.809250
-25.936818 -18.310094 163.380844
-25.622584 -18.296736 163.261658
-25.258887 -18.247335 162.820847
-24.947592 -18.235070 162.711411
-24.659901 -18.239971 162.755142
-24.371980 -18.244819 162.798401
-24.083830 -18.249612 162.841171
-23.795448 -18.254346 162.883408
-23.488370 -18.244676 162.797119
-23.124585 -18.190154 162.310623
-22.750170 -18.125760 161.736038
-22.463147 -18.130223 161.775864
-22.175931 -18.134647 161.815338
-21.888500 -18.139011 161.854279
-21.600554 -18.143061 161.890411
-21.305771 -18.141400 161.875595
-20.942721 -18.080755 161.334457
-20.588302 -18.025953 160.845459
-20.288848 -18.018395 160.778015
-20.002338 -18.022278 160.812668
-19.715766 -18.026220 160.847839
-19.428866 -18.029975 160.881348
-19.141926 -18.033807 160.915543
-18.854800 -18.037580 160.949203
-18.551755 -18.026003 160.845901
-18.208622 -17.974484 160.386200
-17.922060 -17.978044 160.417969
-17.617859 -17.963738 160.290314
-17.280755 -17.914841 159.854004
-16.994806 -17.918215 159.884109
-16.708649 -17.921482 159.913269
-16.422407 -17.924773 159.942627
-16.135912 -17.927900 159.970535
-15.849359 -17.931076 159.998871
-15.562653 -17.934193 160.026688
-15.275713 -17.937153 160.053101
-14.988714 -17.940158 160.079910
-14.683990 -17.921648 159.914749
-14.358014 -17.875935 159.506851
-14.071713 -17.878755 159.532013
-13.785249 -17.881483 159.556351
-13.498639 -17.884133 159.580002
-13.211940 -17.886780 159.603622
-12.884215 -17.832761 159.121613
-12.588835 -17.822065 159.026169
-12.302886 -17.824531 159.048172
-12.016763 -17.826858 159.068939
-11.730580 -17.829208 159.089905
-11.444284 -17.831499 159.110352
-11.157829 -17.833656 159.129593
-10.871317 -17.835833 159.149017
-10.584676 -17.837910 159.167557
-10.261086 -17.776095 158.615982
-9.972094 -17.772385 158.582870
-9.686281 -17.774286 158.599838
-9.382447 -17.742228 158.313782
-9.081435 -17.713655 158.058823
-8.793899 -17.710364 158.029465
-8.508852 -17.712033 158.044357
-8.223728 -17.713653 158.058807
-7.938530 -17.715223 158.072815
-7.653248 -17.716717 158.086151
-7.367896 -17.718157 158.098999
-7.082477 -17.719547 158.111404
-6.796995 -17.720890 158.123383
-6.511440 -17.722154 158.134659
-6.211247 -17.681860 157.775116
-5.921371 -17.668472 157.655655
-5.632387 -17.656523 157.549042
-5.347721 -17.657560 157.558289
-5.063006 -17.658543 157.567062
-4.778242 -17.659461 157.575256
-4.475918 -17.591480 156.968658
-4.192179 -17.592282 156.975815
-3.908402 -17.593029 156.982483
-3.624589 -17.593718 156.988632
-3.340743 -17.594351 156.994278
-3.056867 -17.594927 156.999420
-2.772963 -17.595444 157.004028
-2.489033 -17.595900 157.008102
-2.205083 -17.596306 157.011719
-1.921112 -17.596649 157.014786
-1.637126 -17.596937 157.017349
-1.353125 -17.597164 157.019379
-1.069114 -17.597335 157.020905
-0.785094 -17.597448 157.021912
-0.501070 -17.597504 157.022415
-0.217042 -17.597504 157.022415
0.066985 -17.597446 157.021896
0.351009 -17.597332 157.020874
0.635027 -17.597156 157.019302
0.919036 -17.596923 157.017227
1.203034 -17.596634 157.014648
1.487018 -17.596287 157.011551
1.770985 -17.595883 157.007950
2.054932 -17.595422 157.003830
2.338857 -17.594902 156.999191
2.622756 -17.594322 156.994019
2.906627 -17.593691 156.988388
3.190468 -17.592998 156.982208
3.474273 -17.592243 156.975464
3.758044 -17.591441 156.968307
4.041774 -17.590574 156.960571
4.326113 -17.592297 156.975952
4.612514 -17.601673 157.059616
4.896321 -17.600641 157.050400
5.179157 -17.596422 157.012756
5.459742 -17.585392 156.914337
5.762539 -17.643459 157.432465
6.050146 -17.651739 157.506348
6.334569 -17.650401 157.494415
6.618933 -17.649023 157.482117
6.910144 -17.665262 157.627014
7.212015 -17.706387 157.993973
7.500846 -17.713579 158.058151
7.786032 -17.711955 158.043655
8.071145 -17.710284 158.028748
8.356170 -17.708540 158.013184
8.641119 -17.706756 157.997269
8.925974 -17.704901 157.980713
9.210747 -17.703003 157.963776
9.495419 -17.701029 157.946167
9.779996 -17.699001 157.928070
10.064484 -17.696930 157.909592
10.352437 -17.700899 157.945007
10.657140 -17.732525 158.227203
10.960049 -17.759590 158.468704
11.253546 -17.770413 158.565277
11.575410 -17.824377 159.046799
11.861510 -17.821990 159.025497
12.147440 -17.819466 159.002975
12.433246 -17.816882 158.979919
12.718991 -17.814329 158.957138
13.004549 -17.811632 158.933075
13.290018 -17.808932 158.908981
13.581396 -17.814098 158.955078
13.897838 -17.851244 159.286530
14.200938 -17.870090 159.454697
14.527138 -17.916677 159.870392
14.830642 -17.934000 160.024963
15.117527 -17.930948 159.997726
15.404234 -17.927803 159.969666
15.690759 -17.924566 159.940781
15.977226 -17.921382 159.912369
16.272045 -17.927512 159.967072
16.614268 -17.984742 160.477737
16.910637 -17.991224 160.535568
17.255501 -18.048208 161.044037
17.543387 -18.044695 161.012695
17.831041 -18.041061 160.980270
18.118493 -18.037344 160.947098
18.405868 -18.033669 160.914307
18.692987 -18.029860 160.880325
18.979900 -18.025973 160.845642
19.266766 -18.022160 160.811615
19.615382 -18.075362 161.286331
19.917325 -18.084627 161.369003
20.204596 -18.080493 161.332123
20.491953 -18.076553 161.296967
20.860164 -18.143047 161.890289
21.147970 -18.138736 161.851822
21.435590 -18.134386 161.813004
21.722980 -18.129960 161.773514
22.010157 -18.125476 161.733505
22.297477 -18.121227 161.695587
22.584235 -18.116637 161.654633
22.960293 -18.182883 162.245743
23.265147 -18.191780 162.325134
23.627058 -18.244515 162.795685
23.915578 -18.239976 162.755188
24.203465 -18.235072 162.711426
24.491114 -18.230108 162.667130
24.778558 -18.225111 162.622543
25.163843 -18.291351 163.213608
25.460935 -18.292692 163.225571
25.840910 -18.352867 163.762512
26.129611 -18.347588 163.715408
26.418132 -18.342302 163.668243
26.706340 -18.336919 163.620209
26.994296 -18.331483 163.571701
27.282444 -18.326293 163.525391
27.569886 -18.320746 163.475891
27.894511 -18.339763 163.645584
28.254248 -18.381223 164.015533
28.542024 -18.375493 163.964401
28.829529 -18.369708 163.912781
29.231197 -18.436042 164.504684
29.519279 -18.430124 164.451874
29.807258 -18.424260 164.399551
30.094794 -18.418241 164.345840
30.382045 -18.412167 164.291641
30.669487 -18.406325 164.239517
30.956169 -18.400143 164.184357
31.250136 -18.398368 164.168518
31.652299 -18.459727 164.716019
31.975039 -18.474053 164.843857
32.352000 -18.519153 165.246277
32.639929 -18.512928 165.190735
32.927087 -18.506384 165.132339
33.214249 -18.499959 165.075012
33.500801 -18.493312 165.015701
33.787048 -18.486616 164.955948
34.072984 -18.479868 164.895737
34.359062 -18.473313 164.837250
34.644360 -18.466456 164.776062
35.013450 -18.503998 165.111053
35.352251 -18.525034 165.298752
35.637717 -18.518002 165.236008
36.063908 -18.583603 165.821365
36.349828 -18.576436 165.757416
36.635927 -18.569478 165.695328
36.921200 -18.562217 165.630539
37.206142 -18.554908 165.565323
37.490742 -18.547546 165.499634
37.862731 -18.583192 165.817703
38.208285 -18.605406 166.015915
38.597291 -18.648267 166.398361
38.929728 -18.663344 166.532898
39.214844 -18.655678 166.464493
39.499980 -18.648139 166.397217
39.784380 -18.640368 166.327881
40.068426 -18.632550 166.258118
40.352891 -18.625041 166.191116
40.756978 -18.672447 166.614120
41.080213 -18.682387 166.702820
41.394004 -18.687919 166.752182
41.647354 -18.666282 166.559113
42.060993 -18.716281 167.005249
42.378808 -18.723230 167.067261
42.660913 -18.714417 166.988617
42.945145 -18.706653 166.919342
43.254186 -18.709730 166.946793
43.680252 -18.763032 167.422409
43.964515 -18.755107 167.351700
44.273241 -18.757655 167.374435
44.703556 -18.811334 167.853409
44.987462 -18.803095 167.779892
45.268960 -18.793967 167.698441
45.552175 -18.785668 167.624390
46.012175 -18.849903 168.197556
46.327375 -18.854362 168.237350
46.761636 -18.906904 168.706177
47.043112 -18.897389 168.621277
47.503359 -18.959348 169.174133
47.980751 -19.027312 169.780579
48.266030 -19.018712 169.703842
48.926769 -19.157231 170.939850
-50.902315 -19.302836 175.045090
-50.636230 -19.322122 175.219986
-50.115524 -19.243879 174.510452
-49.432223 -19.101814 173.222153
-48.946899 -19.034927 172.615601
-48.467321 -18.969431 172.021652
-47.989421 -18.903749 171.426025
-47.512641 -18.837656 170.826675
-47.057087 -18.779169 170.296295
-46.753900 -18.781118 170.313965
-46.279820 -18.713989 169.705215
-45.836225 -18.658373 169.200867
-45.524778 -18.656163 169.180832
-45.059828 -18.590593 168.586212
-44.630265 -18.538828 168.116791
-44.345256 -18.546810 168.189178
-44.029567 -18.541983 168.145401
-43.605139 -18.490977 167.682861
-43.150806 -18.426486 167.098038
-42.868011 -18.434854 167.173920
-42.583548 -18.442618 167.244324
-42.260667 -18.433735 167.163773
-41.850677 -18.386455 166.735016
-41.566846 -18.394316 166.806305
-41.240095 -18.383160 166.705139
-40.837477 -18.337772 166.293549
-40.553325 -18.345302 166.361832
-40.269169 -18.352943 166.431122
-39.984664 -18.360539 166.500000
-39.699114 -18.367766 166.565536
-39.413921 -18.375270 166.633591
-38.975822 -18.311054 166.051254
-38.690631 -18.318235 166.116379
-38.255775 -18.254115 165.534912
-37.971413 -18.261359 165.600601
-37.686160 -18.268286 165.663422
-37.401141 -18.275439 165.728287
-37.115341 -18.282323 165.790710
-36.829647 -18.289371 165.854630
-36.421723 -18.235338 165.364639
-36.115903 -18.231955 165.333954
-35.757871 -18.201936 165.061737
-35.405454 -18.174296 164.811081
-35.119914 -18.180806 164.870117
-34.834512 -18.187499 164.930817
-34.548791 -18.194141 164.991043
-34.262412 -18.200548 165.049149
-33.976080 -18.207094 165.108505
-33.688961 -18.213329 165.165054
-33.402010 -18.219769 165.223450
-33.114757 -18.226158 165.281387
-32.717703 -18.171679 164.787354
-32.501430 -18.217529 165.203140
-32.179322 -18.204358 165.083694
-31.837399 -18.179624 164.859406
-31.432282 -18.117998 164.300552
-31.140003 -18.120857 164.326477
-30.852744 -18.126721 164.379654
-30.565402 -18.132649 164.433411
-30.277780 -18.138526 164.486710
-29.989395 -18.144059 164.536880
-29.701215 -18.149827 164.589188
-29.412753 -18.155537 164.640976
-29.123892 -18.161117 164.691574
-28.722485 -18.095905 164.100204
-28.433886 -18.101144 164.147720
-28.067734 -18.056603 163.743805
-27.748216 -18.041433 163.606232
-27.460343 -18.046731 163.654282
-27.172298 -18.052032 163.702347
-26.884006 -18.057283 163.749969
-26.595000 -18.062166 163.794250
-26.306205 -18.067305 163.840851
-25.915729 -18.001929 163.248001
-25.627534 -18.006913 163.293198
-25.241197 -17.942251 162.706818
-24.952416 -17.946227 162.742874
-24.664672 -17.951053 162.786636
-24.376695 -17.955823 162.829895
-24.088491 -17.960541 162.872681
-23.800058 -17.965204 162.914963
-23.419739 -17.899754 162.321442
-23.054082 -17.843992 161.815765
-22.754583 -17.838659 161.767410
-22.467509 -17.843056 161.807281
-22.180235 -17.847407 161.846741
-21.892753 -17.851707 161.885727
-21.604752 -17.855693 161.921875
-21.308296 -17.852704 161.894775
-20.946797 -17.794379 161.365860
-20.579048 -17.729020 160.773163
-20.292801 -17.733010 160.809341
-20.006235 -17.736831 160.843994
-19.719610 -17.740713 160.879196
-19.432658 -17.744413 160.912750
-19.145660 -17.748182 160.946930
-18.858481 -17.751897 160.980621
-18.506794 -17.694055 160.456085
-18.212179 -17.689803 160.417526
-17.925561 -17.693308 160.449310
-17.621303 -17.679229 160.321640
-17.326638 -17.674466 160.278442
-16.998132 -17.634432 159.915405
-16.711919 -17.637648 159.944565
-16.425623 -17.640889 159.973953
-16.139071 -17.643964 160.001846
-15.852463 -17.647091 160.030197
-15.565704 -17.650163 160.058060
-15.278708 -17.653078 160.084488
-14.991654 -17.656036 160.111313
-14.647127 -17.590090 159.513290
-14.360831 -17.592831 159.538147
-14.074476 -17.595609 159.563339
-13.761079 -17.563989 159.276596
-13.482008 -17.575765 159.383392
-13.167182 -17.540427 159.062927
-12.877229 -17.537383 159.035324
-12.591311 -17.539821 159.057434
-12.305304 -17.542247 159.079437
-12.019126 -17.544539 159.100220
-11.732888 -17.546853 159.121201
-11.446535 -17.549107 159.141647
-11.160025 -17.551232 159.160919
-10.873457 -17.553374 159.180344
-10.563930 -17.517563 158.855591
-10.259813 -17.488970 158.596298
-9.974057 -17.490930 158.614075
-9.669102 -17.458342 158.318558
-9.365574 -17.426419 158.029068
-9.080645 -17.428184 158.045074
-8.795635 -17.429902 158.060654
-8.510531 -17.431543 158.075531
-8.225351 -17.433138 158.089996
-7.940096 -17.434683 158.104004
-7.654760 -17.436157 158.117371
-7.369351 -17.437573 158.130219
-7.083875 -17.438940 158.142609
-6.798336 -17.440261 158.154587
-6.490006 -17.380660 157.614105
-6.202780 -17.374700 157.560059
-5.918166 -17.375831 157.570312
-5.633500 -17.376919 157.580185
-5.348777 -17.377936 157.589401
-5.064007 -17.378905 157.598190
-4.761085 -17.313982 157.009445
-4.476802 -17.312903 156.999664
-4.193008 -17.313694 157.006836
-3.909176 -17.314433 157.013535
-3.625306 -17.315108 157.019653
-3.341404 -17.315733 157.025330
-3.057471 -17.316299 157.030457
-2.773511 -17.316807 157.035065
-2.489526 -17.317260 157.039169
-2.205519 -17.317653 157.042740
-1.921492 -17.317995 157.045837
-1.637449 -17.318276 157.048386
-1.353393 -17.318501 157.050430
-1.069325 -17.318670 157.051956
-0.785250 -17.318782 157.052979
-0.501169 -17.318840 157.053497
-0.217085 -17.318836 157.053467
0.066998 -17.318781 157.052963
0.351078 -17.318665 157.051910
0.635152 -17.318490 157.050323
0.919218 -17.318266 157.048294
1.203272 -17.317981 157.045715
1.487312 -17.317638 157.042603
1.771335 -17.317238 157.038971
2.055339 -17.316785 157.034866
2.339319 -17.316274 157.030228
2.623274 -17.315703 157.025055
2.907202 -17.315082 157.019424
3.191098 -17.314397 157.013214
3.474959 -17.313655 157.006485
3.758787 -17.312866 156.999329
4.042572 -17.312011 156.991577
4.326318 -17.311110 156.983398
4.610016 -17.310137 156.974579
4.893671 -17.309124 156.965393
5.177274 -17.308051 156.955658
5.460820 -17.306908 156.945297
5.745175 -17.308318 156.958084
6.036770 -17.330376 157.158112
6.335818 -17.370887 157.525482
6.620239 -17.369533 157.513199
6.908492 -17.377929 157.589340
7.200835 -17.395539 157.749039
7.502324 -17.433062 158.089310
7.787567 -17.431464 158.074814
8.072738 -17.429822 158.059921
8.357817 -17.428102 158.044327
8.642823 -17.426349 158.028427
8.927734 -17.424521 158.011856
9.212562 -17.422652 157.994904
9.497290 -17.420710 157.977295
9.781924 -17.418714 157.959198
10.066466 -17.416673 157.940689
10.350912 -17.414584 157.921738
10.655134 -17.444984 158.197418
10.962205 -17.478337 158.499878
11.247445 -17.476069 158.479309
11.535909 -17.478798 158.504059
11.845170 -17.512141 158.806427
12.149826 -17.537260 159.034210
12.435690 -17.534719 159.011169
12.721491 -17.532205 158.988373
13.007104 -17.529550 158.964294
13.292626 -17.526890 158.940170
13.578006 -17.524159 158.915405
13.899638 -17.567359 159.307159
14.203722 -17.587076 159.485962
14.526136 -17.628252 159.859360
14.833550 -17.649973 160.056335
15.120487 -17.646965 160.029053
15.407251 -17.643870 160.000992
15.693830 -17.640683 159.972092
15.980351 -17.637547 159.943649
16.266620 -17.634249 159.913742
16.617518 -17.699904 160.509125
16.904692 -17.696596 160.479126
17.242262 -17.745266 160.920486
17.546816 -17.758904 161.044159
17.834523 -17.755325 161.011703
18.122030 -17.751665 160.978516
18.409459 -17.748046 160.945694
18.696634 -17.744299 160.911713
18.983598 -17.740469 160.876984
19.270519 -17.736715 160.842941
19.624040 -17.793460 161.357529
19.912271 -17.790209 161.328049
20.208527 -17.794120 161.363510
20.495940 -17.790243 161.328354
20.864218 -17.855679 161.921753
21.152077 -17.851434 161.883255
21.439756 -17.847155 161.844452
21.727195 -17.842794 161.804901
22.014428 -17.838382 161.764893
22.301801 -17.834197 161.726944
22.588610 -17.829676 161.685944
22.964741 -17.894873 162.277176
23.330137 -17.950165 162.778580
23.631629 -17.955524 162.827179
23.920203 -17.951056 162.786667
24.208145 -17.946229 162.742889
24.495846 -17.941341 162.698563
24.783340 -17.936419 162.653931
25.168699 -18.001610 163.245102
25.464541 -18.002005 163.248688
25.845889 -18.062146 163.794067
26.134645 -18.056950 163.746948
26.423218 -18.051746 163.699753
26.711480 -18.046447 163.651703
26.999486 -18.041093 163.603149
27.287688 -18.035984 163.556824
27.575179 -18.030521 163.507278
27.958714 -18.087306 164.022232
28.259671 -18.090039 164.047012
28.547501 -18.084399 163.995865
28.835058 -18.078703 163.944214
29.236793 -18.143981 164.536179
29.524932 -18.138157 164.483368
29.812957 -18.132381 164.430984
30.100544 -18.126455 164.377243
30.387849 -18.120476 164.323029
30.675343 -18.114725 164.270874
30.962073 -18.108637 164.215668
31.282844 -18.122386 164.340347
31.658330 -18.167274 164.747406
31.989471 -18.186114 164.918259
32.358157 -18.225754 165.277725
32.646136 -18.219626 165.222153
32.933340 -18.213180 165.163696
33.220555 -18.206856 165.106354
33.507161 -18.200314 165.047028
33.793455 -18.193720 164.987228
34.079438 -18.187075 164.926971
34.365566 -18.180622 164.868454
34.714054 -18.206988 165.107544
35.063650 -18.233479 165.347778
35.358932 -18.231517 165.329987
35.644447 -18.224595 165.267212
36.070708 -18.289151 165.852631
36.356677 -18.282096 165.788651
36.642830 -18.275247 165.726547
36.928152 -18.268099 165.661728
37.213141 -18.260903 165.596466
37.497790 -18.253656 165.530746
37.782504 -18.246555 165.466354
38.215449 -18.310589 166.047043
38.593582 -18.347567 166.382370
38.937019 -18.367606 166.564087
39.222180 -18.360057 166.495636
39.507366 -18.352635 166.428329
39.791818 -18.344988 166.358978
40.075902 -18.337286 166.289139
40.360416 -18.329894 166.222107
40.643817 -18.322110 166.151520
41.042306 -18.365942 166.548996
41.371122 -18.378183 166.660004
41.655096 -18.370471 166.590073
42.061151 -18.416323 167.005875
42.386673 -18.426512 167.098267
42.668823 -18.417834 167.019577
42.953098 -18.410190 166.950256
43.236522 -18.402290 166.878616
43.683795 -18.463753 167.435989
43.972641 -18.457869 167.382629
44.253919 -18.448911 167.301392
44.711801 -18.513198 167.884369
44.995751 -18.505086 167.810806
45.277297 -18.496100 167.729324
45.560551 -18.487928 167.655212
46.003238 -18.544131 168.164886
46.304538 -18.542977 168.154419
46.759010 -18.602777 168.696701
47.051736 -18.597868 168.652191
47.512061 -18.658842 169.205124
47.989530 -18.725725 169.811646
48.274845 -18.717255 169.734833
48.933927 -18.852894 170.964859
-50.911673 -18.991856 175.077271
-50.617384 -19.000263 175.154770
-50.124753 -18.933855 174.542587
-49.627012 -18.864664 173.904739
-48.955934 -18.728278 172.647461
-48.476272 -18.663838 172.053421
-47.996175 -18.598397 171.450150
-47.369755 -18.475036 170.312943
-47.065798 -18.476650 170.327820
-46.759522 -18.477368 170.334442
-46.288405 -18.412527 169.736694
-45.844732 -18.357808 169.232269
-45.557728 -18.365512 169.303284
-45.068217 -18.291131 168.617599
-44.638577 -18.240201 168.148102
-44.353524 -18.248058 168.220535
-44.032743 -18.241224 168.157532
-43.613285 -18.193131 167.714188
-43.158868 -18.129680 167.129257
-42.876033 -18.137918 167.205200
-42.591524 -18.145560 167.275650
-42.141140 -18.082137 166.690979
-41.858525 -18.090305 166.766281
-41.569937 -18.095992 166.818710
-41.240797 -18.083980 166.707977
-40.845155 -18.042416 166.324814
-40.560957 -18.049828 166.393143
-40.276756 -18.057350 166.462479
-39.992202 -18.064825 166.531387
-39.706609 -18.071940 166.596985
-39.421363 -18.079324 166.665054
-38.983189 -18.016146 166.082642
-38.637126 -17.994886 165.886658
-38.263019 -17.960130 165.566254
-37.978606 -17.967259 165.631973
-37.693303 -17.974077 165.694824
-37.408238 -17.981118 165.759735
-37.122388 -17.987893 165.822189
-36.836641 -17.994828 165.886124
-36.408065 -17.931532 165.302628
-36.122773 -17.938342 165.365402
-35.764677 -17.908809 165.093155
-35.412207 -17.881621 164.842514
-35.126610 -17.888025 164.901550
-34.841154 -17.894611 164.962265
-34.555389 -17.901151 165.022552
-34.268956 -17.907455 165.080673
-33.982574 -17.913898 165.140060
-33.695407 -17.920037 165.196655
-33.395384 -17.919388 165.190674
-33.035188 -17.886148 164.884247
-32.705487 -17.868963 164.725830
-32.418441 -17.874981 164.781311
-32.131367 -17.881096 164.837677
-31.723366 -17.819399 164.268921
-31.432828 -17.823140 164.303406
-31.145997 -17.829074 164.358109
-30.858684 -17.834844 164.411301
-30.571293 -17.840680 164.465103
-30.283614 -17.846462 164.518402
-29.995180 -17.851909 164.568619
-29.706945 -17.857585 164.620941
-29.418433 -17.863208 164.672775
-29.039734 -17.813622 164.215668
-28.728041 -17.804540 164.131943
-28.439384 -17.809694 164.179459
-28.043067 -17.746826 163.599899
-27.753597 -17.750954 163.637955
-27.465668 -17.756168 163.686020
-27.177573 -17.761387 163.734131
-26.889219 -17.766549 163.781723
-26.600165 -17.771359 163.826065
-26.227939 -17.720085 163.353394
-25.920768 -17.712096 163.279739
-25.539772 -17.652895 162.733994
-25.245264 -17.652790 162.733032
-24.957273 -17.657294 162.774551
-24.669479 -17.662046 162.818359
-24.381448 -17.666742 162.861649
-24.093189 -17.671385 162.904449
-23.804412 -17.675758 162.944763
-23.424312 -17.611580 162.353134
-23.045924 -17.547076 161.758499
-22.759030 -17.551472 161.799026
-22.471901 -17.555799 161.838913
-22.184576 -17.560084 161.878418
-21.897035 -17.564312 161.917389
-21.608981 -17.568236 161.953568
-21.305014 -17.559154 161.869843
-20.950901 -17.507913 161.397476
-20.583081 -17.443608 160.804672
-20.296780 -17.447534 160.840866
-20.010163 -17.451300 160.875580
-19.723481 -17.455118 160.910782
-19.436474 -17.458760 160.944351
-19.149423 -17.462471 160.978561
-18.862188 -17.466127 161.012268
-18.502229 -17.401500 160.416504
-18.215759 -17.405033 160.449066
-17.929086 -17.408482 160.480865
-17.624773 -17.394634 160.353210
-17.287539 -17.347290 159.916763
-17.001480 -17.350559 159.946899
-16.715213 -17.353726 159.976089
-16.428860 -17.356913 160.005478
-16.142255 -17.359944 160.033417
-15.855593 -17.363023 160.061798
-15.568775 -17.366042 160.089630
-15.281726 -17.368914 160.116104
-14.973241 -17.347062 159.914658
-14.650020 -17.306940 159.544800
-14.363669 -17.309639 159.569672
-14.055132 -17.285163 159.344040
-13.736916 -17.247510 158.996933
-13.451314 -17.250070 159.020538
-13.165623 -17.252626 159.044098
-12.879777 -17.255089 159.066803
-12.593804 -17.257489 159.088928
-12.307742 -17.259877 159.110947
-12.021508 -17.262133 159.131744
-11.735212 -17.264409 159.152725
-11.448804 -17.266631 159.173203
-11.162239 -17.268723 159.192490
-10.875614 -17.270832 159.211929
-10.547580 -17.205506 158.609726
-10.261848 -17.207463 158.627762
-9.976037 -17.209395 158.645569
-9.667798 -17.171606 158.297211
-9.367432 -17.145920 158.060425
-9.082449 -17.147660 158.076462
-8.797381 -17.149348 158.092026
-8.512221 -17.150963 158.106918
-8.226985 -17.152534 158.121399
-7.941674 -17.154055 158.135422
-7.656281 -17.155505 158.148788
-7.370816 -17.156901 158.161652
-7.085283 -17.158246 158.174057
-6.775828 -17.099334 157.630966
-6.488626 -17.093870 157.580597
-6.204014 -17.095042 157.591400
-5.919343 -17.096154 157.601654
-5.634621 -17.097225 157.611526
-5.349841 -17.098225 157.620743
-5.065014 -17.099180 157.629547
-4.765171 -17.046530 157.144196
-4.477694 -17.034243 157.030930
-4.193842 -17.035020 157.038086
-3.909953 -17.035745 157.044769
-3.626027 -17.036408 157.050888
-3.342069 -17.037024 157.056564
-3.058080 -17.037584 157.061722
-2.774063 -17.038082 157.066315
-2.490022 -17.038529 157.070435
-2.205958 -17.038916 157.074005
-1.921875 -17.039250 157.077087
-1.637775 -17.039529 157.079651
-1.353662 -17.039752 157.081711
-1.069538 -17.039918 157.083237
-0.785406 -17.040027 157.084244
-0.501269 -17.040085 157.084778
-0.217128 -17.040081 157.084747
0.067011 -17.040025 157.084229
0.351148 -17.039913 157.083191
0.635279 -17.039742 157.081619
0.919401 -17.039519 157.079559
1.203512 -17.039237 157.076965
1.487608 -17.038900 157.073853
1.771688 -17.038509 157.070251
2.055748 -17.038062 157.066132
2.339785 -17.037559 157.061493
2.623797 -17.036998 157.056320
2.907780 -17.036384 157.050659
3.191733 -17.035713 157.044479
3.475651 -17.034983 157.037750
3.759534 -17.034204 157.030563
4.043377 -17.033364 157.022827
4.327179 -17.032476 157.014633
4.610934 -17.031521 157.005829
4.894643 -17.030519 156.996597
5.178303 -17.029465 156.986877
5.461906 -17.028341 156.976517
5.745455 -17.027171 156.965729
6.029604 -17.027803 156.971558
6.319553 -17.044022 157.121078
6.621555 -17.089955 157.544510
6.905961 -17.088555 157.531601
7.190301 -17.087108 157.518265
7.477486 -17.092277 157.565918
7.789116 -17.150891 158.106247
8.074341 -17.149270 158.091309
8.359477 -17.147580 158.075729
8.644537 -17.145849 158.059769
8.929506 -17.144055 158.043228
9.214391 -17.142214 158.026260
9.499173 -17.140300 158.008621
9.783865 -17.138339 157.990540
10.068461 -17.136328 157.972000
10.352964 -17.134272 157.953049
10.637340 -17.132122 157.933228
10.944780 -17.166259 158.247925
11.249673 -17.194764 158.510696
11.534832 -17.192438 158.489258
11.822372 -17.193688 158.500778
12.152233 -17.254971 159.065720
12.438150 -17.252465 159.042618
12.724008 -17.249994 159.019836
13.009675 -17.247377 158.995712
13.295255 -17.244762 158.971603
13.580688 -17.242070 158.946793
13.899371 -17.280829 159.304092
14.206527 -17.303974 159.517456
14.492668 -17.301109 159.491043
14.836476 -17.365855 160.087906
15.123470 -17.362895 160.060623
15.410289 -17.359850 160.032547
15.696926 -17.356715 160.003647
15.983503 -17.353628 159.975189
16.269827 -17.350382 159.945267
16.560707 -17.352022 159.960388
16.908017 -17.411718 160.510696
17.245657 -17.459607 160.952164
17.550265 -17.473021 161.075821
17.838030 -17.469500 161.043365
18.125591 -17.465897 161.010147
18.413077 -17.462337 160.977325
18.700304 -17.458645 160.943298
18.987325 -17.454878 160.908569
19.274304 -17.451185 160.874527
19.560951 -17.447307 160.838776
19.847425 -17.443391 160.802673
20.212490 -17.507662 161.395157
20.499953 -17.503841 161.359940
20.867515 -17.567561 161.947342
21.156216 -17.564045 161.914932
21.443951 -17.559834 161.876114
21.731447 -17.555544 161.836563
22.018729 -17.551197 161.796494
22.306158 -17.547081 161.758545
22.593022 -17.542632 161.717529
22.968384 -17.606133 162.302917
23.257053 -17.602417 162.268661
23.636233 -17.666444 162.858902
23.924865 -17.662050 162.818390
24.212857 -17.657296 162.774567
24.500611 -17.652484 162.730209
24.788164 -17.647644 162.685593
25.173592 -17.711781 163.276840
25.469892 -17.712448 163.282990
25.769558 -17.715414 163.310333
26.139720 -17.766226 163.778748
26.428343 -17.761102 163.731506
26.716658 -17.755886 163.683426
27.004719 -17.750618 163.634857
27.292973 -17.745589 163.588501
27.580516 -17.740211 163.538925
27.897411 -17.753627 163.662598
28.265131 -17.798765 164.078705
28.553013 -17.793213 164.027527
28.863801 -17.801903 164.107635
29.242435 -17.851835 164.567932
29.530621 -17.846099 164.515060
29.818703 -17.840417 164.462677
30.106342 -17.834584 164.408905
30.393699 -17.828700 164.354660
30.681241 -17.823037 164.302460
30.968022 -17.817045 164.247223
31.258527 -17.813290 164.212601
31.664406 -17.874733 164.779022
31.995601 -17.893265 164.949860
32.364359 -17.932267 165.309402
32.652393 -17.926237 165.253815
32.939641 -17.919889 165.195297
33.226907 -17.913666 165.137924
33.513564 -17.907227 165.078568
33.799909 -17.900737 165.018738
34.085940 -17.894195 164.958435
34.372118 -17.887844 164.899887
34.657517 -17.881200 164.838638
35.015531 -17.911815 165.120865
35.365654 -17.937910 165.361420
35.714400 -17.962874 165.591553
36.077558 -17.994611 165.884125
36.363580 -17.987669 165.820129
36.649776 -17.980926 165.757965
36.935149 -17.973891 165.693115
37.220187 -17.966809 165.627823
37.504886 -17.959676 165.562073
37.789653 -17.952689 165.497665
38.222669 -18.015687 166.078415
38.643728 -18.072111 166.598557
38.944364 -18.071780 166.595505
39.229571 -18.064349 166.527008
39.514806 -18.057045 166.459671
39.799300 -18.049515 166.390259
40.083437 -18.041938 166.320404
40.368000 -18.034663 166.253342
40.752121 -18.071646 166.594269
41.095573 -18.090183 166.765152
41.378871 -18.082163 166.691223
41.662898 -18.074575 166.621277
42.109557 -18.137145 167.198074
42.394596 -18.129706 167.129501
42.676791 -18.121165 167.050766
42.961115 -18.113642 166.981415
43.244579 -18.105864 166.909714
43.665049 -18.155159 167.364136
43.980822 -18.160543 167.413773
44.407771 -18.211446 167.883026
44.720107 -18.214975 167.915558
45.004102 -18.206990 167.841949
45.285692 -18.198146 167.760422
45.568990 -18.190102 167.686264
46.011749 -18.245397 168.195999
46.313097 -18.244258 168.185501
46.765747 -18.302348 168.721008
47.060420 -18.298260 168.683319
47.361864 -18.296839 168.670227
47.992579 -18.421827 169.822433
48.283728 -18.415713 169.766068
48.942915 -18.549161 170.996262
-50.920006 -18.680385 175.105927
-50.626304 -18.688889 175.185638
-49.954171 -18.556920 173.948593
-49.460383 -18.489950 173.320831
-48.964583 -18.421369 172.677963
-48.308187 -18.291100 171.456848
-48.004671 -18.293623 171.480499
-47.361288 -18.165820 170.282501
-47.074151 -18.173879 170.358047
-46.767819 -18.174586 170.364670
-46.147936 -18.052643 169.221603
-45.852887 -18.056992 169.262375
-45.568560 -18.065651 169.343536
-45.076243 -17.991411 168.647629
-44.646541 -17.941321 168.178101
-44.361445 -17.949054 168.250580
-44.040606 -17.942331 168.187561
-43.621082 -17.895030 167.744171
-43.166595 -17.832622 167.159180
-42.883713 -17.840727 167.235153
-42.599159 -17.848246 167.305634
-42.148709 -17.785868 166.720917
-41.866043 -17.793903 166.796234
-41.579508 -17.800398 166.857117
-41.142256 -17.741994 166.309647
-40.852514 -17.746809 166.354782
-40.568266 -17.754100 166.423126
-40.284022 -17.761502 166.492508
-39.999417 -17.768854 166.561432
-39.713781 -17.775857 166.627075
-39.373585 -17.758360 166.463058
-38.990241 -17.720982 166.112686
-38.554067 -17.658826 165.530045
-38.269951 -17.665889 165.596252
-37.985492 -17.672903 165.662003
-37.700145 -17.679613 165.724899
-37.415036 -17.686542 165.789856
-37.129135 -17.693207 165.852325
-36.778473 -17.668868 165.624176
-36.414692 -17.637775 165.332718
-36.129349 -17.644473 165.395508
-35.703524 -17.582103 164.810867
-35.418665 -17.588686 164.872574
-35.133023 -17.594989 164.931656
-34.847526 -17.601473 164.992432
-34.561709 -17.607906 165.052734
-34.275231 -17.614111 165.110901
-33.988797 -17.620448 165.170303
-33.701585 -17.626491 165.226944
-33.414535 -17.632727 165.285400
-32.998026 -17.570144 164.698761
-32.711492 -17.576258 164.756073
-32.424397 -17.582180 164.811584
-32.014314 -17.520902 164.237183
-31.725204 -17.525304 164.278442
-31.438614 -17.531193 164.333649
-31.151734 -17.537032 164.388382
-30.864375 -17.542712 164.441620
-30.576931 -17.548453 164.495438
-30.289206 -17.554144 164.548782
-30.000723 -17.559504 164.599030
-29.712436 -17.565088 164.651367
-29.333198 -17.516473 164.195663
-29.021325 -17.507502 164.111572
-28.627556 -17.448430 163.557846
-28.334893 -17.450392 163.576233
-28.046381 -17.454979 163.619232
-27.758744 -17.460214 163.668304
-27.470768 -17.465347 163.716415
-27.182619 -17.470479 163.764526
-26.795191 -17.411215 163.209000
-26.501391 -17.412146 163.217728
-26.213615 -17.417102 163.264175
-25.838185 -17.363266 162.759537
-25.537344 -17.358891 162.718521
-25.249968 -17.363673 162.763351
-24.961927 -17.368106 162.804901
-24.674082 -17.372783 162.848740
-24.386001 -17.377404 162.892059
-24.009791 -17.318570 162.340561
-23.716327 -17.318703 162.341812
-23.342342 -17.259303 161.785004
-23.050235 -17.259703 161.788757
-22.763289 -17.264028 161.829300
-22.476109 -17.268287 161.869217
-22.188731 -17.272503 161.908737
-21.901139 -17.276663 161.947739
-21.613032 -17.280525 161.983932
-21.241904 -17.217201 161.390350
-20.954833 -17.221192 161.427765
-20.586948 -17.157944 160.834885
-20.300592 -17.161805 160.871078
-20.013923 -17.165510 160.905807
-19.727190 -17.169268 160.941040
-19.440130 -17.172851 160.974625
-19.153026 -17.176502 161.008850
-18.865736 -17.180098 161.042557
-18.559369 -17.166161 160.911911
-18.219193 -17.120011 160.479309
-17.932465 -17.123403 160.511108
-17.579571 -17.062685 159.941956
-17.290800 -17.063216 159.946930
-17.004688 -17.066433 159.977081
-16.718366 -17.069547 160.006271
-16.431961 -17.072684 160.035675
-16.145303 -17.075666 160.063629
-15.858587 -17.078695 160.092026
-15.571720 -17.081671 160.119919
-15.284614 -17.084492 160.146362
-14.938981 -17.020740 159.548767
-14.652793 -17.023538 159.574997
-14.311595 -16.961255 158.991165
-14.025032 -16.962495 159.002792
-13.739517 -16.965082 159.027039
-13.453861 -16.967600 159.050644
-13.168119 -16.970118 159.074249
-12.882219 -16.972540 159.096954
-12.596190 -16.974901 159.119080
-12.310075 -16.977251 159.141113
-12.023788 -16.979472 159.161926
-11.737440 -16.981713 159.182938
-11.450976 -16.983896 159.203400
-11.164357 -16.985955 159.222702
-10.836352 -16.923489 158.637161
-10.549582 -16.923774 158.639832
-10.263798 -16.925702 158.657898
-9.939944 -16.863154 158.071594
-9.654169 -16.863416 158.074051
-9.369213 -16.865168 158.090469
-9.084176 -16.866880 158.106522
-8.799054 -16.868541 158.122086
-8.513840 -16.870131 158.136993
-8.228549 -16.871674 158.151459
-7.943185 -16.873174 158.165512
-7.657738 -16.874600 158.178879
-7.372219 -16.875973 158.191757
-7.066749 -16.829945 157.760300
-6.774467 -16.812770 157.599304
-6.489861 -16.813975 157.610596
-6.182348 -16.753215 157.041046
-5.920471 -16.816225 157.631683
-5.635694 -16.817276 157.641541
-5.350861 -16.818263 157.650787
-5.065980 -16.819202 157.659592
-4.762613 -16.755221 157.059845
-4.478547 -16.755326 157.060837
-4.194641 -16.756091 157.068008
-3.910699 -16.756806 157.074707
-3.626719 -16.757462 157.080856
-3.342706 -16.758066 157.086517
-3.058663 -16.758616 157.091675
-2.774592 -16.759108 157.096283
-2.490496 -16.759546 157.100388
-2.206379 -16.759930 157.103989
-1.922242 -16.760259 157.107071
-1.638088 -16.760530 157.109619
-1.353920 -16.760749 157.111664
-1.069742 -16.760913 157.113205
-0.785556 -16.761022 157.114227
-0.501364 -16.761074 157.114716
-0.217170 -16.761073 157.114700
0.067024 -16.761019 157.114197
0.351215 -16.760905 157.113129
0.635400 -16.760740 157.111588
0.919576 -16.760519 157.109512
1.203742 -16.760244 157.106934
1.487892 -16.759910 157.103806
1.772026 -16.759528 157.100220
2.056140 -16.759088 157.096100
2.340231 -16.758590 157.091431
2.624297 -16.758040 157.086273
2.908335 -16.757434 157.080597
3.192341 -16.756773 157.074402
3.476314 -16.756056 157.067673
3.760251 -16.755292 157.060516
4.044147 -16.754462 157.052734
4.328004 -16.753588 157.044540
4.611812 -16.752649 157.035736
4.895576 -16.751665 157.026520
5.179290 -16.750627 157.016785
5.462946 -16.749522 157.006424
5.746549 -16.748369 156.995621
6.030096 -16.747168 156.984360
6.320756 -16.764945 157.151001
