ply
format ascii 1.0
comment generated by convert_depth_to_ply.py
element vertex 1738
property float x
property float y
property float z
end_header
-0.083664 0.096669 1.589682
-0.081959 0.096704 1.590252
-0.080283 0.096775 1.591412
-0.078575 0.096809 1.591979
-0.076894 0.096879 1.593135
-0.075160 0.096884 1.593216
-0.073447 0.096918 1.593778
-0.071712 0.096923 1.593856
-0.070024 0.096993 1.595005
-0.068307 0.097027 1.595562
-0.066615 0.097097 1.596710
-0.064895 0.097130 1.597263
-0.063155 0.097134 1.597329
-0.061415 0.097138 1.597396
-0.059675 0.097142 1.597460
-0.057934 0.097146 1.597523
-0.056194 0.097150 1.597582
-0.054453 0.097153 1.597640
-0.052696 0.097127 1.597214
-0.050911 0.097047 1.595887
-0.049171 0.097049 1.595924
-0.047437 0.097063 1.596147
-0.045701 0.097074 1.596342
-0.043947 0.097048 1.595906
-0.042175 0.096975 1.594712
-0.040444 0.096996 1.595058
-0.035321 0.088520 1.455675
-0.032933 0.086421 1.421157
-0.031378 0.086407 1.420925
-0.029810 0.086355 1.420069
-0.028225 0.086247 1.418287
-0.026652 0.086164 1.416926
-0.025090 0.086107 1.415996
-0.023546 0.086109 1.416020
-0.021993 0.086077 1.415497
-0.020430 0.086001 1.414253
-0.018885 0.085992 1.414092
-0.017328 0.085920 1.412908
-0.015783 0.085899 1.412573
-0.014232 0.085838 1.411557
-0.012692 0.085838 1.411569
-0.011152 0.085839 1.411579
-0.009603 0.085756 1.410209
-0.008064 0.085756 1.410216
-0.006526 0.085756 1.410221
-0.004984 0.085703 1.409338
-0.003445 0.085673 1.408848
-0.001907 0.085627 1.408093
-0.000371 0.085589 1.407471
0.001164 0.085553 1.406883
0.002697 0.085514 1.406237
0.004231 0.085504 1.406080
0.005765 0.085504 1.406071
0.007299 0.085503 1.406060
0.008841 0.085586 1.407421
0.010385 0.085653 1.408523
0.011935 0.085752 1.410143
0.013486 0.085827 1.411386
0.015040 0.085909 1.412738
0.016598 0.085996 1.414167
0.018159 0.086082 1.415580
0.019741 0.086250 1.418334
0.021331 0.086423 1.421183
0.022805 0.086134 1.416428
0.026841 0.094942 1.561271
0.029038 0.096586 1.588316
0.030771 0.096584 1.588279
0.032502 0.096582 1.588239
0.034234 0.096579 1.588198
0.036001 0.096671 1.589706
0.037738 0.096677 1.589807
0.039488 0.096716 1.590455
0.041241 0.096757 1.591118
0.042992 0.096792 1.591691
0.044753 0.096845 1.592568
0.046466 0.096793 1.591717
0.048412 0.097214 1.598643
0.047411 0.091893 1.511142
0.044708 0.083743 1.377111
0.046260 0.083834 1.378606
0.047832 0.083952 1.380556
0.049504 0.084236 1.385213
0.051126 0.084418 1.388219
0.052708 0.084525 1.389980
0.054313 0.084664 1.392257
0.055902 0.084771 1.394018
0.057517 0.084910 1.396298
0.059121 0.085025 1.398193
0.060741 0.085159 1.400391
0.062349 0.085267 1.402180
0.063980 0.085403 1.404414
0.065594 0.085510 1.406172
0.067237 0.085649 1.408454
0.068860 0.085756 1.410222
0.070582 0.085980 1.413895
0.072264 0.086146 1.416623
0.073951 0.086312 1.419352
0.075659 0.086494 1.422346
0.077421 0.086729 1.426213
0.079128 0.086896 1.428957
0.080865 0.087087 1.432104
0.082643 0.087315 1.435854
0.084371 0.087483 1.438610
0.086190 0.087736 1.442777
0.087932 0.087904 1.445544
0.089681 0.088073 1.448316
0.091435 0.088241 1.451089
0.093244 0.088455 1.454598
0.095057 0.088666 1.458067
0.096832 0.088835 1.460853
0.098625 0.089015 1.463812
0.100465 0.089231 1.467363
0.102396 0.089520 1.472108
0.103972 0.089494 1.471688
0.104805 0.088839 1.460918
0.104938 0.087619 1.440859
0.105890 0.087109 1.432469
0.107106 0.086828 1.427846
0.108365 0.086590 1.423929
0.109691 0.086410 1.420979
0.111118 0.086315 1.419402
0.112509 0.086194 1.417415
0.113932 0.086101 1.415891
0.115387 0.086034 1.414786
0.116885 0.086001 1.414243
0.118333 0.085932 1.413108
0.119831 0.085900 1.412590
0.121272 0.085829 1.411425
0.122770 0.085800 1.410940
0.124296 0.085791 1.410798
0.125738 0.085725 1.409703
0.127289 0.085733 1.409846
0.128787 0.085707 1.409411
0.130311 0.085698 1.409262
0.131834 0.085689 1.409112
0.133447 0.085737 1.409911
0.135012 0.085754 1.410191
0.136535 0.085745 1.410036
0.138108 0.085766 1.410386
0.139699 0.085798 1.410912
0.141298 0.085834 1.411507
0.142903 0.085874 1.412153
0.144568 0.085948 1.413368
0.146093 0.085938 1.413203
0.147867 0.086073 1.415433
0.149568 0.086164 1.416918
0.151393 0.086322 1.419531
0.153355 0.086556 1.423371
0.155495 0.086884 1.428765
0.167218 0.092507 1.521234
0.171530 0.093960 1.545127
0.172534 0.093590 1.539046
0.174417 0.093700 1.540850
-0.427729 0.222188 3.589003
-0.422366 0.221429 3.576749
-0.479656 0.253808 4.099771
-0.189474 0.101203 1.634737
-0.185194 0.099857 1.612994
-0.182662 0.099436 1.606199
-0.180397 0.099155 1.601647
-0.178143 0.098874 1.597107
-0.175899 0.098592 1.592567
-0.173667 0.098313 1.588048
-0.171598 0.098120 1.584933
-0.169403 0.097851 1.580586
-0.167434 0.097708 1.578285
-0.165335 0.097486 1.574689
-0.163411 0.097363 1.572706
-0.161475 0.097230 1.570567
-0.159619 0.097144 1.569165
-0.157741 0.097042 1.567514
-0.155891 0.096954 1.566106
-0.154044 0.096867 1.564697
-0.152298 0.096843 1.564301
-0.150474 0.096767 1.563077
-0.148771 0.096768 1.563103
-0.147004 0.096728 1.562447
-0.145248 0.096693 1.561891
-0.143442 0.096625 1.560786
-0.141855 0.096704 1.562056
-0.140168 0.096715 1.562245
-0.138487 0.096732 1.562512
-0.136795 0.096741 1.562662
-0.134973 0.096657 1.561298
-0.133018 0.096474 1.558348
-0.131076 0.096297 1.555481
-0.129436 0.096339 1.556171
-0.127835 0.096412 1.557340
-0.126285 0.096526 1.559182
-0.124698 0.096614 1.560605
-0.123126 0.096717 1.562265
-0.121488 0.096770 1.563125
-0.119854 0.096827 1.564055
-0.118194 0.096865 1.564669
-0.116574 0.096938 1.565836
-0.114988 0.097040 1.567493
-0.113300 0.097060 1.567808
-0.111652 0.097114 1.568681
-0.109990 0.097158 1.569393
-0.108356 0.097228 1.570524
-0.106703 0.097283 1.571409
-0.105082 0.097369 1.572806
-0.103466 0.097463 1.574321
-0.101864 0.097573 1.576107
-0.100247 0.097673 1.577722
-0.098631 0.097778 1.579406
-0.096992 0.097863 1.580778
-0.095318 0.097915 1.581616
-0.093663 0.097988 1.582805
-0.092022 0.098080 1.584283
-0.090335 0.098125 1.585008
-0.088672 0.098198 1.586193
-0.086972 0.098232 1.586749
-0.085304 0.098305 1.587932
-0.083601 0.098340 1.588481
-0.081929 0.098413 1.589661
-0.080201 0.098420 1.589783
-0.078497 0.098459 1.590412
-0.076813 0.098525 1.591469
-0.075099 0.098553 1.591933
-0.073370 0.098563 1.592093
-0.071648 0.098584 1.592430
-0.069956 0.098648 1.593463
-0.068249 0.098694 1.594206
-0.066545 0.098746 1.595041
-0.064815 0.098761 1.595282
-0.063088 0.098783 1.595640
-0.061350 0.098787 1.595707
-0.059604 0.098777 1.595555
-0.057865 0.098780 1.595602
-0.056134 0.098798 1.595892
-0.054395 0.098802 1.595950
-0.052641 0.098777 1.595544
-0.050902 0.098780 1.595598
-0.049129 0.098716 1.594555
-0.047401 0.098739 1.594937
-0.045675 0.098771 1.595453
-0.043937 0.098776 1.595535
-0.042172 0.098718 1.594601
-0.040507 0.098901 1.597546
-0.035248 0.089930 1.452647
-0.032898 0.087886 1.419625
-0.031354 0.087898 1.419820
-0.029778 0.087820 1.418566
-0.028196 0.087711 1.416804
-0.026624 0.087627 1.415444
-0.025081 0.087629 1.415470
-0.023537 0.087630 1.415494
-0.021977 0.087568 1.414494
-0.020429 0.087547 1.414155
-0.018868 0.087463 1.412793
-0.017327 0.087464 1.412810
-0.015774 0.087399 1.411751
-0.014231 0.087380 1.411459
-0.012691 0.087381 1.411471
-0.011142 0.087313 1.410368
-0.009602 0.087297 1.410111
-0.008064 0.087297 1.410118
-0.006525 0.087298 1.410122
-0.004985 0.087257 1.409460
-0.003445 0.087213 1.408750
-0.001907 0.087166 1.407995
-0.000371 0.087127 1.407373
0.001163 0.087052 1.406152
0.002697 0.087042 1.405990
0.004231 0.087041 1.405982
0.005765 0.087041 1.405973
0.007298 0.087040 1.405962
0.008839 0.087106 1.407020
0.010384 0.087193 1.408425
0.011933 0.087280 1.409830
0.013484 0.087367 1.411235
0.015029 0.087399 1.411758
0.016596 0.087540 1.414044
0.018157 0.087627 1.415448
0.019740 0.087800 1.418236
0.021332 0.087985 1.421222
0.022748 0.087466 1.412846
0.027292 0.098278 1.587495
0.029030 0.098300 1.587838
0.030740 0.098229 1.586698
0.032482 0.098264 1.587262
0.034232 0.098315 1.588088
0.035966 0.098320 1.588169
0.037714 0.098359 1.588791
0.039465 0.098403 1.589504
0.041220 0.098453 1.590318
0.042972 0.098493 1.590956
0.044719 0.098518 1.591365
0.046479 0.098569 1.592188
0.048303 0.098747 1.595059
0.050403 0.099456 1.606519
0.049874 0.095105 1.536233
0.046224 0.085280 1.377530
0.047842 0.085485 1.380840
0.049425 0.085618 1.382993
0.051038 0.085793 1.385816
0.052652 0.085960 1.388510
0.054219 0.086042 1.389847
0.055843 0.086209 1.392543
0.057460 0.086356 1.394908
0.059052 0.086460 1.396584
0.060678 0.086605 1.398925
0.062283 0.086714 1.400698
0.063913 0.086853 1.402945
0.065569 0.087020 1.405642
0.067186 0.087129 1.407390
0.068834 0.087271 1.409698
0.070510 0.087442 1.412454
0.072259 0.087694 1.416525
0.073946 0.087863 1.419253
0.075644 0.088037 1.422063
0.077415 0.088288 1.426114
0.079137 0.088473 1.429108
0.080909 0.088707 1.432883
0.082599 0.088843 1.435084
0.084386 0.089077 1.438859
0.086184 0.089313 1.442677
0.087926 0.089484 1.445444
0.089675 0.089656 1.448216
0.091429 0.089828 1.450988
0.093237 0.090045 1.454498
0.095086 0.090294 1.458517
0.096853 0.090458 1.461171
0.098607 0.090605 1.463541
0.100458 0.090835 1.467262
0.102366 0.091109 1.471683
0.104069 0.091193 1.473051
0.107054 0.092383 1.492259
0.105132 0.089366 1.443524
0.106007 0.088779 1.434051
0.107209 0.088480 1.429225
0.108529 0.088286 1.426081
0.109866 0.088110 1.423247
0.111293 0.088010 1.421635
0.112646 0.087856 1.419144
0.114070 0.087761 1.417601
0.115569 0.087725 1.417021
0.116993 0.087633 1.415544
0.118445 0.087565 1.414437
0.119941 0.087531 1.413890
0.121388 0.087462 1.412780
0.122911 0.087449 1.412563
0.124411 0.087420 1.412096
0.125852 0.087351 1.410983
0.127378 0.087342 1.410838
0.128867 0.087308 1.410282
0.130429 0.087324 1.410542
0.131954 0.087314 1.410392
0.133478 0.087305 1.410239
0.135046 0.087324 1.410547
0.136659 0.087372 1.411316
0.138184 0.087362 1.411159
0.139708 0.087352 1.411000
0.141369 0.087427 1.412218
0.142955 0.087455 1.412668
0.144558 0.087493 1.413271
0.146212 0.087560 1.414362
0.147857 0.087620 1.415336
0.149680 0.087784 1.417978
0.151509 0.087948 1.420624
0.153432 0.088162 1.424083
0.155468 0.088437 1.428519
0.159515 0.089838 1.451156
0.170446 0.095051 1.535360
0.172470 0.095244 1.538475
0.174698 0.095544 1.543329
-0.429433 0.227027 3.603300
-0.420175 0.224185 3.558194
-0.451635 0.243217 3.860269
-0.187098 0.101706 1.614240
-0.185052 0.101549 1.611755
-0.182343 0.101023 1.603399
-0.180082 0.100736 1.598855
-0.177957 0.100521 1.595436
-0.175764 0.100263 1.591343
-0.173655 0.100048 1.587937
-0.171435 0.099764 1.583430
-0.169421 0.099596 1.580753
-0.167382 0.099409 1.577788
-0.165323 0.099207 1.574579
-0.163300 0.099021 1.571636
-0.161441 0.098933 1.570229
-0.159531 0.098811 1.568300
-0.157682 0.098725 1.566929
-0.155754 0.098586 1.564728
-0.153977 0.098542 1.564024
-0.152287 0.098552 1.564191
-0.150450 0.098466 1.562830
-0.148761 0.098477 1.562994
-0.146927 0.098391 1.561630
-0.145157 0.098346 1.560914
-0.143415 0.098319 1.560489
-0.141720 0.098324 1.560571
-0.140031 0.098334 1.560725
-0.138378 0.098369 1.561279
-0.136786 0.098449 1.562553
-0.135056 0.098431 1.562262
-0.133231 0.098342 1.560852
-0.131279 0.098155 1.557893
-0.129475 0.098077 1.556641
-0.127825 0.098114 1.557228
-0.126276 0.098230 1.559072
-0.124689 0.098319 1.560495
-0.123117 0.098424 1.562156
-0.121453 0.098457 1.562677
-0.119846 0.098537 1.563945
-0.118265 0.098641 1.565598
-0.116566 0.098649 1.565726
-0.114930 0.098711 1.566710
-0.113278 0.098761 1.567507
-0.111577 0.098769 1.567630
-0.109906 0.098804 1.568186
-0.108279 0.098881 1.569401
-0.106645 0.098953 1.570553
-0.104989 0.099007 1.571414
-0.103384 0.099112 1.573078
-0.101775 0.099217 1.574741
-0.100163 0.099322 1.576403
-0.098527 0.099407 1.577750
-0.096890 0.099493 1.579119
-0.095217 0.099545 1.579942
-0.093586 0.099643 1.581505
-0.091935 0.099724 1.582794
-0.090302 0.099828 1.584437
-0.088602 0.099859 1.584934
-0.086937 0.099933 1.586113
-0.085215 0.099943 1.586270
-0.083513 0.099977 1.586808
-0.081844 0.100053 1.588016
-0.080137 0.100086 1.588526
-0.078463 0.100161 1.589722
-0.076736 0.100170 1.589865
-0.075023 0.100199 1.590327
-0.073302 0.100218 1.590635
-0.071610 0.100279 1.591596
-0.069883 0.100291 1.591790
-0.068211 0.100386 1.593299
-0.066475 0.100391 1.593371
-0.064758 0.100423 1.593884
-0.063022 0.100427 1.593951
-0.061310 0.100471 1.594647
-0.059549 0.100435 1.594081
-0.057812 0.100439 1.594144
-0.056075 0.100443 1.594202
-0.054338 0.100447 1.594261
-0.052600 0.100450 1.594317
-0.050848 0.100426 1.593928
-0.049111 0.100429 1.593980
-0.047374 0.100432 1.594030
-0.045645 0.100456 1.594402
-0.043898 0.100438 1.594125
-0.042128 0.100363 1.592932
-0.040406 0.100403 1.593564
-0.035188 0.091369 1.450178
-0.032869 0.089366 1.418393
-0.031312 0.089338 1.417951
-0.029739 0.089259 1.416687
-0.028174 0.089197 1.415710
-0.026622 0.089173 1.415320
-0.025079 0.089176 1.415370
-0.023535 0.089177 1.415394
-0.021983 0.089146 1.414901
-0.020423 0.089072 1.413723
-0.018867 0.089007 1.412693
-0.017326 0.089008 1.412710
-0.015778 0.088969 1.412082
-0.014230 0.088923 1.411359
-0.012690 0.088924 1.411371
-0.011149 0.088916 1.411243
-0.009601 0.088838 1.410012
-0.008063 0.088839 1.410018
-0.006525 0.088839 1.410023
-0.004984 0.088797 1.409360
-0.003445 0.088752 1.408651
-0.001908 0.088752 1.408650
-0.000371 0.088692 1.407685
0.001163 0.088588 1.406046
0.002697 0.088578 1.405890
0.004231 0.088578 1.405883
0.005764 0.088577 1.405874
0.007298 0.088577 1.405863
0.008838 0.088643 1.406920
0.010378 0.088682 1.407527
0.011922 0.088747 1.408569
0.013480 0.088887 1.410792
0.015024 0.088918 1.411285
0.016595 0.089086 1.413944
0.018156 0.089176 1.415372
0.019739 0.089351 1.418144
0.021359 0.089656 1.422985
0.022976 0.089910 1.427022
0.027187 0.099637 1.581402
0.028985 0.099887 1.585374
0.030708 0.099865 1.585033
0.032448 0.099900 1.585586
0.034206 0.099981 1.586866
0.035936 0.099978 1.586823
0.037692 0.100045 1.587887
0.039427 0.100052 1.587988
0.041195 0.100137 1.589342
0.042927 0.100134 1.589291
0.044665 0.100142 1.589430
0.046458 0.100270 1.591462
0.048224 0.100333 1.592455
0.049956 0.100321 1.592260
0.051878 0.100680 1.597967
0.051017 0.095790 1.520355
0.047971 0.087235 1.384569
0.049403 0.087097 1.382383
0.050933 0.087135 1.382973
0.052508 0.087245 1.384718
0.054150 0.087456 1.388082
0.055769 0.087620 1.390682
0.057357 0.087729 1.392405
0.058990 0.087899 1.395105
0.060612 0.088045 1.397418
0.062257 0.088215 1.400122
0.063846 0.088300 1.401476
0.065501 0.088470 1.404171
0.067162 0.088641 1.406883
0.068830 0.088812 1.409598
0.070503 0.088983 1.412317
0.072185 0.089158 1.415090
0.073941 0.089414 1.419153
0.075634 0.089586 1.421885
0.077368 0.089797 1.425238
0.079123 0.090026 1.428858
0.080910 0.090280 1.432902
0.082632 0.090454 1.435653
0.084389 0.090659 1.438905
0.086178 0.090890 1.442575
0.087920 0.091064 1.445342
0.089668 0.091239 1.448114
0.091423 0.091413 1.450886
0.093262 0.091666 1.454887
0.095043 0.091853 1.457864
0.096913 0.092118 1.462076
0.098679 0.092279 1.464618
0.100430 0.092420 1.466855
0.102350 0.092709 1.471444
0.104296 0.093013 1.476276
0.109810 0.096441 1.530684
0.105546 0.091307 1.449202
0.106148 0.090473 1.435957
0.107228 0.090064 1.429474
0.108562 0.089878 1.426514
0.109960 0.089749 1.424465
0.111395 0.089653 1.422940
0.112826 0.089556 1.421409
0.114174 0.089397 1.418890
0.115675 0.089362 1.418323
0.117131 0.089292 1.417209
0.118552 0.089198 1.415719
0.120040 0.089156 1.415051
0.121493 0.089089 1.413994
0.122978 0.089047 1.413334
0.124438 0.088989 1.412406
0.125931 0.088955 1.411871
0.127369 0.088884 1.410739
0.128895 0.088875 1.410592
0.130420 0.088865 1.410443
0.131945 0.088856 1.410293
0.133509 0.088873 1.410569
0.135105 0.088911 1.411164
0.136650 0.088914 1.411217
0.138174 0.088904 1.411060
0.139775 0.088943 1.411681
0.141359 0.088971 1.412119
0.142971 0.089016 1.412828
0.144615 0.089079 1.413828
0.146215 0.089114 1.414387
0.147950 0.089230 1.416226
0.149749 0.089381 1.418635
0.151638 0.089583 1.421832
0.153484 0.089755 1.424564
0.155478 0.090010 1.428614
0.157559 0.090309 1.433361
0.168325 0.095532 1.516259
0.172753 0.097091 1.540997
0.175494 0.097681 1.550361
-0.430727 0.231677 3.614162
-0.421168 0.228628 3.566600
-0.430010 0.235605 3.675431
-0.184743 0.102174 1.593918
-0.184097 0.102784 1.603435
-0.181865 0.102513 1.599195
-0.179716 0.102282 1.595602
-0.177644 0.102092 1.592633
-0.175578 0.101901 1.589657
-0.173473 0.101684 1.586274
-0.171301 0.101423 1.582192
-0.169379 0.101305 1.580363
-0.167342 0.101116 1.577413
-0.165312 0.100927 1.574467
-0.163288 0.100739 1.571524
-0.161293 0.100564 1.568793
-0.159439 0.100474 1.567391
-0.157565 0.100370 1.565763
-0.155672 0.100251 1.563910
-0.153966 0.100251 1.563912
-0.152128 0.100164 1.562553
-0.150365 0.100125 1.561945
-0.148615 0.100094 1.561469
-0.146837 0.100043 1.560673
-0.145085 0.100009 1.560145
-0.143398 0.100020 1.560303
-0.141710 0.100030 1.560459
-0.140021 0.100039 1.560614
-0.138332 0.100049 1.560766
-0.136643 0.100059 1.560916
-0.135084 0.100166 1.562581
-0.133391 0.100175 1.562726
-0.131495 0.100029 1.560456
-0.129583 0.099867 1.557931
-0.127827 0.099824 1.557251
-0.126267 0.099933 1.558961
-0.124703 0.100043 1.560671
-0.123108 0.100131 1.562044
-0.121509 0.100218 1.563394
-0.119837 0.100246 1.563833
-0.118151 0.100262 1.564091
-0.116558 0.100360 1.565614
-0.114859 0.100368 1.565741
-0.113190 0.100403 1.566281
-0.111569 0.100482 1.567518
-0.109868 0.100490 1.567638
-0.108180 0.100511 1.567972
-0.106582 0.100617 1.569631
-0.104965 0.100708 1.571048
-0.103320 0.100776 1.572105
-0.101668 0.100838 1.573078
-0.100057 0.100945 1.574739
-0.098424 0.101032 1.576101
-0.096788 0.101119 1.577459
-0.095169 0.101227 1.579141
-0.093487 0.101271 1.579832
-0.091860 0.101378 1.581490
-0.090208 0.101460 1.582777
-0.088567 0.101559 1.584318
-0.086849 0.101572 1.584515
-0.085126 0.101578 1.584608
-0.083483 0.101682 1.586245
-0.081757 0.101688 1.586334
-0.080057 0.101726 1.586926
-0.078383 0.101801 1.588102
-0.076673 0.101831 1.588560
-0.074944 0.101836 1.588641
-0.073225 0.101856 1.588953
-0.071535 0.101919 1.589929
-0.069823 0.101950 1.590425
-0.068105 0.101977 1.590842
-0.066412 0.102041 1.591844
-0.064689 0.102064 1.592195
-0.062955 0.102068 1.592261
-0.061220 0.102072 1.592327
-0.059486 0.102076 1.592391
-0.057751 0.102080 1.592453
-0.056034 0.102118 1.593041
-0.054319 0.102161 1.593703
-0.052582 0.102164 1.593760
-0.050800 0.102078 1.592414
-0.049068 0.102089 1.592591
-0.047333 0.102093 1.592655
-0.045600 0.102105 1.592831
-0.043864 0.102108 1.592877
-0.042118 0.102089 1.592586
-0.040289 0.101857 1.588961
-0.035263 0.093159 1.453281
-0.032864 0.090908 1.418158
-0.031279 0.090797 1.416436
-0.029715 0.090740 1.415547
-0.028164 0.090719 1.415215
-0.026602 0.090658 1.414261
-0.025077 0.090722 1.415268
-0.023533 0.090724 1.415292
-0.021987 0.090714 1.415144
-0.020424 0.090628 1.413797
-0.018865 0.090551 1.412591
-0.017324 0.090552 1.412608
-0.015780 0.090530 1.412273
-0.014229 0.090465 1.411258
-0.012689 0.090466 1.411269
-0.011150 0.090467 1.411279
-0.009601 0.090379 1.409910
-0.008063 0.090379 1.409917
-0.006524 0.090380 1.409921
-0.004984 0.090337 1.409259
-0.003445 0.090292 1.408549
-0.001908 0.090292 1.408549
-0.000371 0.090203 1.407172
0.001164 0.090188 1.406939
0.002697 0.090123 1.405921
0.004230 0.090114 1.405782
0.005764 0.090114 1.405772
0.007301 0.090161 1.406508
0.008840 0.090200 1.407123
0.010381 0.090251 1.407921
0.011921 0.090286 1.408467
0.013471 0.090374 1.409826
0.015033 0.090519 1.412097
0.016594 0.090631 1.413842
0.018172 0.090810 1.416629
0.019771 0.091054 1.420437
0.021336 0.091120 1.421463
0.024453 0.097355 1.518740
0.027173 0.101321 1.580609
0.028948 0.101500 1.583393
0.030686 0.101533 1.583911
0.032439 0.101610 1.585122
0.034194 0.101687 1.586312
0.035923 0.101684 1.586268
0.037663 0.101708 1.586645
0.039420 0.101777 1.587726
0.041162 0.101801 1.588099
0.042906 0.101827 1.588501
0.044656 0.101867 1.589124
0.046388 0.101864 1.589070
0.048133 0.101887 1.589434
0.049926 0.102007 1.591306
0.051580 0.101846 1.588800
0.053300 0.101821 1.588409
0.053559 0.099093 1.545856
0.049541 0.088860 1.386222
0.050914 0.088618 1.382445
0.052387 0.088559 1.381516
0.054009 0.088749 1.384478
0.055659 0.088971 1.387945
0.057240 0.089075 1.389572
0.058912 0.089311 1.393256
0.060549 0.089484 1.395954
0.062151 0.089598 1.397734
0.063796 0.089767 1.400364
0.065450 0.089941 1.403072
0.067092 0.090091 1.405418
0.068775 0.090287 1.408474
0.070436 0.090446 1.410962
0.072178 0.090701 1.414941
0.073875 0.090890 1.417882
0.075629 0.091140 1.421783
0.077404 0.091405 1.425911
0.079112 0.091581 1.428655
0.080863 0.091800 1.432073
0.082626 0.092023 1.435550
0.084383 0.092231 1.438802
0.086172 0.092466 1.442472
0.087913 0.092644 1.445239
0.089662 0.092821 1.448010
0.091493 0.093077 1.452001
0.093268 0.093268 1.454978
0.095037 0.093446 1.457759
0.096895 0.093706 1.461810
0.098689 0.093895 1.464763
0.100432 0.094031 1.466882
0.102411 0.094379 1.472317
0.105075 0.095339 1.487291
0.111472 0.099606 1.553845
0.106092 0.093378 1.456698
0.106241 0.092129 1.437217
0.107313 0.091706 1.430606
0.108657 0.091523 1.427759
0.110068 0.091401 1.425862
0.111497 0.091298 1.424245
0.112851 0.091136 1.421727
0.114358 0.091101 1.421176
0.115814 0.091027 1.420026
0.117237 0.090929 1.418494
0.118656 0.090831 1.416961
0.120150 0.090792 1.416348
0.121576 0.090703 1.414966
0.123021 0.090630 1.413828
0.124518 0.090597 1.413310
0.125957 0.090523 1.412162
0.127485 0.090514 1.412017
0.129000 0.090496 1.411743
0.130538 0.090495 1.411721
0.132050 0.090476 1.411420
0.133590 0.090476 1.411418
0.135116 0.090466 1.411273
0.136737 0.090521 1.412121
0.138282 0.090523 1.412163
0.139824 0.090524 1.412180
0.141409 0.090553 1.412620
0.143012 0.090592 1.413236
0.144679 0.090670 1.414453
0.146277 0.090704 1.414988
0.147981 0.090803 1.416518
0.149775 0.090954 1.418876
0.151636 0.091142 1.421812
0.153616 0.091397 1.425790
0.155467 0.091571 1.428512
0.157822 0.092036 1.435755
0.164104 0.094759 1.478232
0.171968 0.098333 1.534000
0.175676 0.099485 1.551972
-0.433857 0.237356 3.640423
-0.424916 0.234612 3.598339
-0.441636 0.246117 3.774808
-0.183865 0.103430 1.586343
-0.183338 0.104113 1.596826
-0.181316 0.103953 1.594366
-0.179350 0.103821 1.592354
-0.177282 0.103628 1.589391
-0.175220 0.103435 1.586422
-0.173166 0.103242 1.583466
-0.171119 0.103049 1.580514
-0.169124 0.102885 1.577986
-0.167166 0.102740 1.575760
-0.165138 0.102548 1.572816
-0.163117 0.102356 1.569877
-0.161202 0.102227 1.567904
-0.159351 0.102138 1.566527
-0.157422 0.101995 1.564346
-0.155644 0.101949 1.563630
-0.153819 0.101870 1.562418
-0.152117 0.101871 1.562440
-0.150293 0.101790 1.561200
-0.148594 0.101793 1.561244
-0.146771 0.101710 1.559975
-0.145075 0.101714 1.560032
-0.143370 0.101712 1.559996
-0.141611 0.101671 1.559375
-0.140000 0.101737 1.560380
-0.138322 0.101755 1.560652
-0.136633 0.101764 1.560803
-0.135074 0.101873 1.562464
-0.133513 0.101983 1.564149
-0.131775 0.101958 1.563780
-0.129825 0.101767 1.560845
-0.128053 0.101712 1.559994
-0.126362 0.101721 1.560133
-0.124793 0.101829 1.561795
-0.123099 0.101838 1.561930
-0.121459 0.101891 1.562747
-0.119742 0.101881 1.562589
-0.118132 0.101963 1.563844
-0.116446 0.101980 1.564112
-0.114750 0.101989 1.564251
-0.113152 0.102087 1.565751
-0.111452 0.102095 1.565874
-0.109780 0.102129 1.566391
-0.108120 0.102175 1.567095
-0.106482 0.102244 1.568154
-0.104870 0.102340 1.569632
-0.103251 0.102432 1.571047
-0.101617 0.102513 1.572293
-0.099952 0.102564 1.573074
-0.098339 0.102672 1.574732
-0.096704 0.102761 1.576090
-0.095069 0.102852 1.577480
-0.093447 0.102961 1.579162
-0.091818 0.103067 1.580780
-0.090133 0.103112 1.581468
-0.088480 0.103196 1.582758
-0.086758 0.103202 1.582853
-0.085058 0.103234 1.583347
-0.083396 0.103315 1.584581
-0.081692 0.103347 1.585072
-0.080025 0.103427 1.586305
-0.078299 0.103433 1.586391
-0.076575 0.103442 1.586528
-0.074864 0.103469 1.586956
-0.073189 0.103550 1.588183
-0.071465 0.103561 1.588357
-0.069748 0.103586 1.588737
-0.068068 0.103665 1.589960
-0.066336 0.103670 1.590032
-0.064610 0.103684 1.590251
-0.062888 0.103705 1.590571
-0.061155 0.103710 1.590637
-0.059422 0.103714 1.590701
-0.057710 0.103755 1.591339
-0.055996 0.103797 1.591973
-0.054262 0.103800 1.592031
-0.052527 0.103804 1.592088
-0.050755 0.103733 1.590990
-0.049016 0.103727 1.590907
-0.047321 0.103814 1.592244
-0.045585 0.103817 1.592292
-0.043849 0.103820 1.592338
-0.042113 0.103823 1.592383
-0.040388 0.103854 1.592847
-0.038071 0.102299 1.569005
-0.032867 0.092472 1.418288
-0.031248 0.092261 1.415052
-0.029685 0.092199 1.414102
-0.028162 0.092265 1.415104
-0.026600 0.092202 1.414141
-0.025075 0.092269 1.415165
-0.023530 0.092264 1.415096
-0.021967 0.092182 1.413829
-0.020405 0.092093 1.412470
-0.018864 0.092094 1.412488
-0.017323 0.092095 1.412505
-0.015770 0.092024 1.411408
-0.014228 0.092007 1.411155
-0.012688 0.092008 1.411166
-0.011149 0.092009 1.411176
-0.009600 0.091919 1.409807
-0.008062 0.091920 1.409813
-0.006524 0.091920 1.409818
-0.004984 0.091877 1.409156
-0.003444 0.091831 1.408446
-0.001908 0.091831 1.408446
-0.000371 0.091741 1.407069
0.001164 0.091741 1.407065
0.002697 0.091659 1.405812
0.004230 0.091650 1.405679
0.005766 0.091697 1.406395
0.007304 0.091738 1.407032
0.008839 0.091738 1.407020
0.010382 0.091809 1.408121
0.011930 0.091901 1.409526
0.013470 0.091914 1.409723
0.015032 0.092063 1.412009
0.016605 0.092242 1.414762
0.018184 0.092424 1.417550
0.019822 0.092851 1.424094
0.021431 0.093096 1.427846
0.025408 0.102892 1.578094
0.027219 0.103228 1.583254
0.028945 0.103226 1.583218
0.030672 0.103223 1.583181
0.032411 0.103262 1.583777
0.034158 0.103319 1.584647
0.035895 0.103342 1.585005
0.037631 0.103362 1.585309
0.039379 0.103411 1.586060
0.041112 0.103418 1.586160
0.042879 0.103506 1.587510
0.044609 0.103502 1.587457
0.046324 0.103464 1.586866
0.048070 0.103495 1.587345
0.049812 0.103517 1.587688
0.051542 0.103513 1.587627
0.053207 0.103383 1.585630
0.055042 0.103580 1.588650
0.055039 0.100413 1.540075
0.051085 0.090438 1.387089
0.052342 0.089998 1.380335
0.053876 0.090045 1.381059
0.055503 0.090241 1.384059
0.057123 0.090416 1.386742
0.058807 0.090679 1.390788
0.060442 0.090855 1.393481
0.062127 0.091097 1.397188
0.063772 0.091270 1.399848
0.065380 0.091383 1.401583
0.067040 0.091561 1.404315
0.068752 0.091803 1.408019
0.070424 0.091980 1.410735
0.072120 0.092181 1.413814
0.073858 0.092425 1.417563
0.075624 0.092694 1.421680
0.077340 0.092892 1.424724
0.079106 0.093141 1.428551
0.080819 0.093320 1.431296
0.082565 0.093529 1.434493
0.084347 0.093771 1.438201
0.086165 0.094042 1.442367
0.087907 0.094223 1.445134
0.089666 0.094414 1.448070
0.091499 0.094676 1.452094
0.093261 0.094858 1.454872
0.095030 0.095039 1.457653
0.096859 0.095275 1.461269
0.098682 0.095496 1.464656
0.100373 0.095584 1.466019
0.102496 0.096075 1.473543
0.106977 0.098727 1.514214
0.111919 0.101717 1.560078
0.107247 0.096011 1.472557
0.106476 0.093914 1.440404
0.107411 0.093361 1.431917
0.108837 0.093245 1.430131
0.110169 0.093051 1.427169
0.111599 0.092946 1.425550
0.112953 0.092780 1.423013
0.114380 0.092679 1.421459
0.115807 0.092580 1.419939
0.117309 0.092543 1.419369
0.118763 0.092470 1.418245
0.120181 0.092370 1.416711
0.121600 0.092274 1.415239
0.123108 0.092246 1.414823
0.124542 0.092166 1.413583
0.126071 0.092156 1.413439
0.127540 0.092103 1.412626
0.129002 0.092047 1.411767
0.130529 0.092037 1.411618
0.132055 0.092028 1.411468
0.133580 0.092018 1.411316
0.135238 0.092098 1.412549
0.136764 0.092088 1.412394
0.138289 0.092078 1.412236
0.139891 0.092118 1.412858
0.141477 0.092147 1.413296
0.143067 0.092178 1.413779
0.144668 0.092216 1.414350
0.146337 0.092295 1.415566
0.147999 0.092368 1.416693
0.149794 0.092523 1.419061
0.151603 0.092682 1.421498
0.153644 0.092979 1.426051
0.155477 0.093145 1.428603
0.157496 0.093418 1.432792
0.161230 0.094693 1.452349
0.169775 0.098741 1.514431
0.175024 0.100813 1.546208
-0.438198 0.243765 3.676849
-0.429005 0.240856 3.632967
-0.445041 0.252189 3.803903
-0.190384 0.108899 1.642587
-0.182721 0.105509 1.591454
-0.180886 0.105452 1.590584
-0.178889 0.105297 1.588261
-0.176921 0.105158 1.586154
-0.174863 0.104961 1.583190
-0.172814 0.104766 1.580241
-0.170896 0.104647 1.578455
-0.168899 0.104477 1.575890
-0.166991 0.104359 1.574106
-0.164965 0.104164 1.571166
-0.162946 0.103969 1.568229
-0.161091 0.103876 1.566825
-0.159165 0.103735 1.564697
-0.157338 0.103656 1.563507
-0.155542 0.103596 1.562601
-0.153794 0.103567 1.562157
-0.151970 0.103485 1.560926
-0.150270 0.103488 1.560965
-0.148477 0.103425 1.560017
-0.146752 0.103408 1.559767
-0.145064 0.103418 1.559917
-0.143237 0.103328 1.558552
-0.141551 0.103338 1.558708
-0.139864 0.103348 1.558862
-0.138312 0.103459 1.560537
-0.136623 0.103469 1.560688
-0.134933 0.103479 1.560836
-0.133503 0.103691 1.564034
-0.131806 0.103699 1.564150
-0.129975 0.103600 1.562650
-0.128126 0.103483 1.560886
-0.126353 0.103425 1.560018
-0.124692 0.103459 1.560531
-0.123020 0.103485 1.560921
-0.121397 0.103553 1.561948
-0.119703 0.103562 1.562078
-0.118017 0.103578 1.562323
-0.116341 0.103603 1.562707
-0.114730 0.103688 1.563983
-0.113033 0.103696 1.564107
-0.111399 0.103764 1.565126
-0.109744 0.103814 1.565878
-0.108044 0.103821 1.565997
-0.106447 0.103930 1.567640
-0.104770 0.103963 1.568130
-0.103142 0.104047 1.569397
-0.101510 0.104129 1.570635
-0.099903 0.104240 1.572317
-0.098286 0.104345 1.573890
-0.096673 0.104457 1.575582
-0.095002 0.104509 1.576372
-0.093362 0.104599 1.577718
-0.091725 0.104695 1.579179
-0.090098 0.104807 1.580857
-0.088387 0.104822 1.581096
-0.086752 0.104931 1.582735
-0.085030 0.104937 1.582828
-0.083308 0.104943 1.582920
-0.081608 0.104978 1.583435
-0.079941 0.105057 1.584640
-0.078219 0.105066 1.584766
-0.076566 0.105171 1.586354
-0.074840 0.105176 1.586436
-0.073113 0.105182 1.586515
-0.071402 0.105212 1.586975
-0.069688 0.105238 1.587365
-0.067996 0.105299 1.588290
-0.066282 0.105330 1.588745
-0.064552 0.105334 1.588815
-0.062867 0.105416 1.590050
-0.061135 0.105420 1.590116
-0.059403 0.105425 1.590180
-0.057670 0.105429 1.590243
-0.055938 0.105433 1.590301
-0.054205 0.105437 1.590359
-0.052471 0.105440 1.590416
-0.050738 0.105444 1.590469
-0.049005 0.105447 1.590521
-0.047271 0.105451 1.590571
-0.045537 0.105454 1.590620
-0.043811 0.105476 1.590958
-0.042079 0.105485 1.591094
-0.040356 0.105518 1.591589
-0.038758 0.105897 1.597302
-0.033349 0.095408 1.439087
-0.031259 0.093845 1.415518
-0.029681 0.093739 1.413923
-0.028133 0.093720 1.413637
-0.026591 0.093721 1.413653
-0.025073 0.093815 1.415060
-0.023528 0.093808 1.414959
-0.021964 0.093723 1.413682
-0.020403 0.093636 1.412364
-0.018860 0.093624 1.412187
-0.017306 0.093552 1.411097
-0.015766 0.093548 1.411036
-0.014227 0.093549 1.411050
-0.012687 0.093550 1.411061
-0.011148 0.093550 1.411072
-0.009599 0.093460 1.409702
-0.008061 0.093460 1.409709
-0.006523 0.093460 1.409714
-0.004985 0.093450 1.409552
-0.003444 0.093369 1.408342
-0.001908 0.093369 1.408341
-0.000371 0.093278 1.406965
0.001164 0.093278 1.406961
0.002698 0.093255 1.406616
0.004233 0.093254 1.406609
0.005769 0.093276 1.406939
0.007303 0.093270 1.406842
0.008838 0.093275 1.406915
0.010379 0.093330 1.407741
0.011929 0.093441 1.409421
0.013477 0.093514 1.410528
0.015031 0.093607 1.411920
0.016604 0.093790 1.414694
0.018187 0.093997 1.417804
0.019678 0.093731 1.413791
0.023199 0.102470 1.545619
0.025491 0.104966 1.583255
0.027217 0.104958 1.583136
0.028943 0.104955 1.583101
0.030669 0.104953 1.583063
0.032396 0.104950 1.583024
0.034136 0.104991 1.583642
0.035883 0.105047 1.584486
0.037610 0.105044 1.584441
0.039341 0.105050 1.584523
0.041086 0.105092 1.585158
0.042834 0.105137 1.585842
0.044562 0.105134 1.585790
0.046291 0.105130 1.585735
0.048019 0.105126 1.585678
0.049747 0.105122 1.585619
0.051475 0.105118 1.585558
0.053208 0.105124 1.585651
0.054883 0.105019 1.584062
0.056736 0.105251 1.587561
0.057231 0.103025 1.553985
0.052525 0.091833 1.385162
0.053821 0.091467 1.379645
0.055349 0.091505 1.380224
0.057026 0.091780 1.384368
0.058725 0.092076 1.388834
0.060377 0.092286 1.392001
0.062016 0.092465 1.394694
0.063662 0.092646 1.397434
0.065358 0.092890 1.401116
0.067016 0.093070 1.403830
0.068680 0.093250 1.406540
0.070352 0.093432 1.409284
0.072097 0.093701 1.413352
0.073853 0.093974 1.417458
0.075548 0.094159 1.420251
0.077321 0.094433 1.424386
0.079057 0.094650 1.427662
0.080813 0.094884 1.431190
0.082533 0.095066 1.433938
0.084301 0.095297 1.437411
0.086107 0.095561 1.441395
0.087901 0.095801 1.445027
0.089649 0.095985 1.447798
0.091425 0.096192 1.450919
0.093221 0.096413 1.454247
0.095023 0.096631 1.457545
0.096882 0.096901 1.461610
0.098675 0.097096 1.464548
0.100448 0.097266 1.467114
0.103048 0.098218 1.481475
0.108839 0.102136 1.540573
0.111977 0.103483 1.560887
0.109844 0.099991 1.508224
0.106831 0.095813 1.445204
0.107627 0.095123 1.434793
0.108937 0.094901 1.431440
0.110272 0.094706 1.428506
0.111629 0.094535 1.425925
0.113054 0.094427 1.424290
0.114483 0.094324 1.422740
0.115911 0.094222 1.421207
0.117336 0.094122 1.419700
0.118836 0.094083 1.419111
0.120277 0.094000 1.417848
0.121710 0.093911 1.416518
0.123195 0.093866 1.415830
0.124647 0.093796 1.414779
0.126129 0.093751 1.414093
0.127591 0.093691 1.413189
0.129108 0.093673 1.412928
0.130615 0.093649 1.412553
0.132155 0.093648 1.412539
0.133701 0.093651 1.412591
0.135228 0.093641 1.412445
0.136754 0.093631 1.412290
0.138333 0.093657 1.412686
0.139941 0.093702 1.413353
0.141466 0.093691 1.413192
0.143080 0.093738 1.413901
0.144751 0.093822 1.415164
0.146401 0.093889 1.416188
0.147998 0.093923 1.416686
0.149783 0.094073 1.418957
0.151614 0.094249 1.421605
0.153725 0.094593 1.426800
0.155597 0.094785 1.429700
0.157333 0.094892 1.431309
0.160297 0.095729 1.443937
0.166410 0.098413 1.484417
0.173596 0.101673 1.533591
-0.444137 0.251159 3.726682
-0.436018 0.248845 3.692356
-0.439164 0.252978 3.753677
-0.266466 0.154941 2.299007
-0.181838 0.106737 1.583762
-0.180357 0.106883 1.585931
-0.178509 0.106813 1.584885
-0.176561 0.106681 1.582922
-0.174507 0.106481 1.579964
-0.172602 0.106370 1.578309
-0.170632 0.106215 1.576014
-0.168766 0.106123 1.574650
-0.166741 0.105928 1.571749
-0.164792 0.105777 1.569515
-0.162812 0.105603 1.566940
-0.160861 0.105445 1.564594
-0.159070 0.105390 1.563767
-0.157243 0.105309 1.562565
-0.155469 0.105262 1.561871
-0.153645 0.105179 1.560648
-0.151946 0.105182 1.560683
-0.150235 0.105176 1.560600
-0.148427 0.105101 1.559488
-0.146741 0.105112 1.559650
-0.144967 0.105060 1.558874
-0.143226 0.105030 1.558436
-0.141540 0.105041 1.558591
-0.139854 0.105051 1.558745
-0.138302 0.105164 1.560420
-0.136612 0.105174 1.560571
-0.134923 0.105184 1.560719
-0.133366 0.105299 1.562428
-0.131798 0.105409 1.564054
-0.129968 0.105309 1.562565
-0.128143 0.105210 1.561099
-0.126343 0.105129 1.559901
-0.124652 0.105138 1.560038
-0.122961 0.105147 1.560173
-0.121276 0.105163 1.560397
-0.119604 0.105189 1.560793
-0.117999 0.105276 1.562085
-0.116304 0.105285 1.562213
-0.114721 0.105396 1.563865
-0.113024 0.105405 1.563990
-0.111327 0.105413 1.564112
-0.109694 0.105483 1.565156
-0.108036 0.105532 1.565879
-0.106349 0.105553 1.566189
-0.104737 0.105650 1.567634
-0.103048 0.105673 1.567968
-0.101445 0.105784 1.569623
-0.099822 0.105879 1.571033
-0.098189 0.105967 1.572339
-0.096577 0.106080 1.574017
-0.094961 0.106194 1.575697
-0.093281 0.106238 1.576352
-0.091657 0.106349 1.578005
-0.090003 0.106429 1.579192
-0.088312 0.106468 1.579763
-0.086657 0.106551 1.581004
-0.084960 0.106586 1.581517
-0.083240 0.106593 1.581624
-0.081580 0.106678 1.582887
-0.079875 0.106708 1.583336
-0.078159 0.106723 1.583547
-0.076486 0.106799 1.584687
-0.074761 0.106805 1.584768
-0.073052 0.106835 1.585210
-0.071339 0.106859 1.585570
-0.069652 0.106925 1.586547
-0.067929 0.106937 1.586731
-0.066212 0.106959 1.587055
-0.064483 0.106964 1.587125
-0.062801 0.107048 1.588378
-0.061071 0.107053 1.588444
-0.059341 0.107057 1.588508
-0.057610 0.107061 1.588571
-0.055886 0.107078 1.588823
-0.054160 0.107094 1.589051
-0.052416 0.107073 1.588743
-0.050685 0.107077 1.588797
-0.048953 0.107080 1.588849
-0.047221 0.107083 1.588899
-0.045489 0.107087 1.588947
-0.043757 0.107089 1.588988
-0.042032 0.107112 1.589327
-0.040358 0.107271 1.591680
-0.038679 0.107429 1.594028
-0.037509 0.109084 1.618581
-0.031426 0.095909 1.423091
-0.029696 0.095341 1.414660
-0.028151 0.095335 1.414579
-0.026615 0.095359 1.414927
-0.025090 0.095432 1.416011
-0.023528 0.095360 1.414947
-0.021963 0.095270 1.413617
-0.020417 0.095250 1.413314
-0.018861 0.095180 1.412276
-0.017320 0.095176 1.412222
-0.015765 0.095089 1.410930
-0.014226 0.095090 1.410943
-0.012686 0.095091 1.410955
-0.011147 0.095092 1.410965
-0.009604 0.095056 1.410442
-0.008061 0.095000 1.409602
-0.006523 0.095000 1.409607
-0.004983 0.094955 1.408945
-0.003444 0.094908 1.408235
-0.001908 0.094908 1.408235
-0.000371 0.094844 1.407298
0.001164 0.094815 1.406854
0.002699 0.094814 1.406849
0.004233 0.094814 1.406842
0.005768 0.094813 1.406832
0.007303 0.094812 1.406822
0.008838 0.094811 1.406809
0.010382 0.094899 1.408108
0.011930 0.094995 1.409529
0.013479 0.095075 1.410719
0.015045 0.095243 1.413209
0.016619 0.095429 1.415967
0.018243 0.095848 1.422183
0.020067 0.097166 1.441742
0.023734 0.106569 1.581267
0.025530 0.106866 1.585668
0.027238 0.106780 1.584398
0.028941 0.106685 1.582981
0.030667 0.106682 1.582944
0.032393 0.106679 1.582905
0.034125 0.106696 1.583145
0.035845 0.106674 1.582820
0.037608 0.106775 1.584322
0.039335 0.106772 1.584274
0.041062 0.106768 1.584226
0.042793 0.106775 1.584320
0.044526 0.106786 1.584485
0.046269 0.106820 1.584984
0.048016 0.106858 1.585559
0.049743 0.106854 1.585500
0.051426 0.106756 1.584049
0.053159 0.106766 1.584193
0.054877 0.106746 1.583899
0.056563 0.106668 1.582729
0.058491 0.107035 1.588181
0.059253 0.105310 1.562587
0.054093 0.093450 1.386614
0.055311 0.092955 1.379268
0.056891 0.093079 1.381095
0.058623 0.093438 1.386434
0.060358 0.093784 1.391560
0.061996 0.093965 1.394253
0.063640 0.094147 1.396950
0.065290 0.094329 1.399651
0.066963 0.094535 1.402701
0.068675 0.094786 1.406434
0.070345 0.094969 1.409147
0.072044 0.095183 1.412319
0.073786 0.095443 1.416183
0.075538 0.095706 1.420080
0.077311 0.095984 1.424203
0.079017 0.096168 1.426944
0.080734 0.096360 1.429779
0.082527 0.096633 1.433830
0.084282 0.096851 1.437078
0.086076 0.097107 1.440871
0.087894 0.097380 1.444918
0.089642 0.097567 1.447689
0.091396 0.097753 1.450460
0.093203 0.097990 1.453968
0.095098 0.098309 1.458709
0.096915 0.098538 1.462104
0.098750 0.098778 1.465662
0.100561 0.098987 1.468765
0.104809 0.101550 1.506800
0.109724 0.104671 1.553105
0.111840 0.105067 1.558977
0.112151 0.103781 1.539894
0.107319 0.097844 1.451799
0.107835 0.096884 1.437562
0.109072 0.096591 1.433209
0.110478 0.096454 1.431178
0.111808 0.096254 1.428218
0.113131 0.096055 1.425256
0.114560 0.095949 1.423691
0.116012 0.095865 1.422446
0.117440 0.095765 1.420956
0.118865 0.095664 1.419457
0.120362 0.095623 1.418847
0.121815 0.095548 1.417740
0.123234 0.095450 1.416278
0.124738 0.095418 1.415812
0.126175 0.095337 1.414610
0.127697 0.095321 1.414366
0.129206 0.095296 1.413994
0.130698 0.095259 1.413455
0.132164 0.095204 1.412637
0.133691 0.095194 1.412485
0.135319 0.095255 1.413396
0.136877 0.095267 1.413564
0.138404 0.095256 1.413407
0.139989 0.095286 1.413845
0.141581 0.095319 1.414337
0.143121 0.095317 1.414305
0.144788 0.095399 1.415522
0.146448 0.095474 1.416641
0.148123 0.095557 1.417877
0.149892 0.095700 1.419989
0.151744 0.095891 1.422821
0.153733 0.096164 1.426877
0.155590 0.096350 1.429639
0.157300 0.096442 1.431006
0.159876 0.097058 1.440147
0.163637 0.098375 1.459686
0.169731 0.101055 1.499448
-0.455525 0.261793 3.822237
-0.448486 0.260129 3.797938
-0.458000 0.268124 3.914674
-0.391367 0.231272 3.376622
-0.181578 0.108320 1.581503
-0.179738 0.108251 1.580487
-0.178038 0.108266 1.580702
-0.176201 0.108197 1.579694
-0.174197 0.108023 1.577159
-0.172278 0.107898 1.575342
-0.170383 0.107787 1.573715
-0.168517 0.107692 1.572325
-0.166564 0.107538 1.570084
-0.164634 0.107396 1.568011
-0.162762 0.107290 1.566462
-0.160831 0.107142 1.564296
-0.158985 0.107049 1.562934
-0.157211 0.107001 1.562244
-0.155387 0.106919 1.561043
-0.153620 0.106875 1.560397
-0.151934 0.106886 1.560564
-0.150168 0.106841 1.559904
-0.148416 0.106804 1.559370
-0.146730 0.106816 1.559531
-0.145042 0.106826 1.559682
-0.143239 0.106750 1.558579
-0.141529 0.106743 1.558473
-0.139843 0.106754 1.558627
-0.138291 0.106868 1.560301
-0.136602 0.106879 1.560452
-0.134941 0.106912 1.560936
-0.133352 0.107003 1.562271
-0.131667 0.107019 1.562496
-0.129958 0.107015 1.562444
-0.128133 0.106915 1.560980
-0.126237 0.106752 1.558597
-0.124643 0.106842 1.559919
-0.122952 0.106851 1.560054
-0.121260 0.106860 1.560188
-0.119568 0.106869 1.560317
-0.117929 0.106927 1.561159
-0.116296 0.106991 1.562094
-0.114601 0.107000 1.562220
-0.112916 0.107018 1.562485
-0.111318 0.107121 1.563993
-0.109620 0.107129 1.564113
-0.107946 0.107161 1.564570
-0.106327 0.107250 1.565873
-0.104626 0.107258 1.565985
-0.102996 0.107339 1.567169
-0.101395 0.107454 1.568850
-0.099732 0.107506 1.569611
-0.098122 0.107619 1.571263
-0.096494 0.107715 1.572659
-0.094861 0.107809 1.574034
-0.093243 0.107924 1.575714
-0.091560 0.107966 1.576328
-0.089917 0.108058 1.577675
-0.088281 0.108163 1.579205
-0.086569 0.108177 1.579407
-0.084870 0.108207 1.579842
-0.083214 0.108295 1.581132
-0.081494 0.108301 1.581221
-0.079795 0.108337 1.581739
-0.078128 0.108419 1.582937
-0.076405 0.108424 1.583019
-0.074698 0.108453 1.583443
-0.072975 0.108459 1.583522
-0.071305 0.108546 1.584803
-0.069579 0.108552 1.584877
-0.067858 0.108564 1.585055
-0.066158 0.108613 1.585770
-0.064464 0.108672 1.586640
-0.062735 0.108677 1.586706
-0.061007 0.108681 1.586772
-0.059278 0.108686 1.586836
-0.057549 0.108690 1.586898
-0.055820 0.108694 1.586957
-0.054091 0.108698 1.587015
-0.052361 0.108702 1.587071
-0.050631 0.108705 1.587124
-0.048902 0.108709 1.587176
-0.047171 0.108712 1.587226
-0.045441 0.108716 1.587274
-0.043678 0.108636 1.586115
-0.041988 0.108741 1.587638
-0.040296 0.108851 1.589243
-0.038621 0.109015 1.591640
-0.037042 0.109482 1.598469
-0.034410 0.106726 1.558219
-0.029851 0.097398 1.422039
-0.028226 0.097144 1.418331
-0.026659 0.097072 1.417278
-0.025113 0.097074 1.417303
-0.023543 0.096974 1.415847
-0.021983 0.096906 1.414852
-0.020420 0.096816 1.413529
-0.018877 0.096813 1.413490
-0.017319 0.096723 1.412185
-0.015775 0.096701 1.411850
-0.014224 0.096631 1.410835
-0.012685 0.096632 1.410847
-0.011146 0.096632 1.410857
-0.009599 0.096552 1.409675
-0.008060 0.096539 1.409494
-0.006522 0.096539 1.409499
-0.004985 0.096540 1.409502
-0.003444 0.096446 1.408127
-0.001908 0.096446 1.408127
-0.000371 0.096391 1.407325
0.001164 0.096351 1.406746
0.002698 0.096351 1.406741
0.004233 0.096350 1.406734
0.005768 0.096349 1.406724
0.007302 0.096349 1.406714
0.008842 0.096405 1.407534
0.010390 0.096518 1.409178
0.011929 0.096534 1.409421
0.013480 0.096625 1.410743
0.015057 0.096873 1.414373
0.016649 0.097160 1.418564
0.018140 0.096858 1.414148
0.021825 0.107400 1.568068
0.023801 0.108610 1.585725
0.025529 0.108600 1.585591
0.027236 0.108510 1.584277
0.028939 0.108413 1.582860
0.030665 0.108411 1.582823
0.032391 0.108408 1.582783
0.034117 0.108405 1.582742
0.035842 0.108402 1.582699
0.037570 0.108406 1.582758
0.039332 0.108502 1.584153
0.041059 0.108499 1.584104
0.042786 0.108495 1.584053
0.044512 0.108491 1.584001
0.046239 0.108488 1.583946
0.047975 0.108507 1.584233
0.049696 0.108491 1.583991
0.051395 0.108429 1.583089
0.053095 0.108375 1.582300
0.054827 0.108385 1.582441
0.056594 0.108462 1.583577
0.058262 0.108352 1.581968
0.060202 0.108739 1.587610
0.060635 0.106459 1.554325
0.055567 0.094907 1.385663
0.056898 0.094606 1.381267
0.058555 0.094849 1.384814
0.060290 0.095203 1.389983
0.061932 0.095396 1.392808
0.063635 0.095673 1.396842
0.065285 0.095858 1.399544
0.066941 0.096043 1.402247
0.068604 0.096229 1.404971
0.070340 0.096508 1.409039
0.072024 0.096706 1.411927
0.073769 0.096975 1.415859
0.075486 0.097197 1.419096
0.077234 0.097449 1.422772
0.079011 0.097727 1.426834
0.080722 0.097915 1.429576
0.082520 0.098199 1.433721
0.084275 0.098421 1.436968
0.086062 0.098672 1.440634
0.087837 0.098902 1.443987
0.089635 0.099148 1.447578
0.091389 0.099337 1.450349
0.093196 0.099578 1.453857
0.095101 0.099913 1.458748
0.096886 0.100113 1.461668
0.098681 0.100316 1.464644
0.100286 0.100324 1.464752
0.107255 0.105613 1.541970
0.110102 0.106742 1.558453
0.111807 0.106746 1.558520
0.113182 0.106440 1.554055
0.108202 0.100255 1.463750
0.108068 0.098675 1.440671
0.109246 0.098320 1.435496
0.110581 0.098116 1.432512
0.111830 0.097841 1.428498
0.113150 0.097635 1.425501
0.114665 0.097601 1.424991
0.116007 0.097423 1.422395
0.117433 0.097318 1.420872
0.118946 0.097288 1.420428
0.120393 0.097205 1.419212
0.121925 0.097192 1.419019
0.123340 0.097087 1.417491
0.124852 0.097060 1.417105
0.126289 0.096977 1.415884
0.127821 0.096967 1.415738
0.129291 0.096911 1.414923
0.130755 0.096852 1.414061
0.132283 0.096842 1.413910
0.133811 0.096831 1.413758
0.135340 0.096821 1.413612
0.136867 0.096811 1.413456
0.138449 0.096839 1.413872
0.140056 0.096883 1.414521
0.141583 0.096872 1.414360
0.143238 0.096948 1.415466
0.144850 0.096994 1.416129
0.146447 0.097028 1.416632
0.148203 0.097166 1.418643
0.149907 0.097268 1.420129
0.151739 0.097449 1.422780
0.153824 0.097788 1.427724
0.155692 0.097983 1.430571
0.157425 0.098091 1.432147
0.159616 0.098478 1.437803
0.162350 0.099190 1.448200
0.165453 0.100112 1.461660
-0.467016 0.272697 3.918654
-0.458538 0.270220 3.883058
-0.460328 0.273804 3.934566
-0.478502 0.287293 4.128404
-0.180282 0.109270 1.570208
-0.179079 0.109582 1.574700
-0.177761 0.109829 1.578244
-0.175977 0.109790 1.577689
-0.173940 0.109591 1.574828
-0.172070 0.109495 1.573440
-0.170116 0.109342 1.571246
-0.168339 0.109302 1.570662
-0.166388 0.109145 1.568419
-0.164460 0.109002 1.566352
-0.162591 0.108894 1.564813
-0.160740 0.108797 1.563412
-0.158908 0.108711 1.562171
-0.157132 0.108661 1.561461
-0.155355 0.108610 1.560720
-0.153609 0.108579 1.560277
-0.151845 0.108535 1.559644
-0.150134 0.108528 1.559548
-0.148404 0.108507 1.559249
-0.146718 0.108519 1.559410
-0.145031 0.108529 1.559561
-0.143344 0.108540 1.559719
-0.141534 0.108457 1.558520
-0.139832 0.108456 1.558506
-0.138280 0.108572 1.560181
-0.136591 0.108583 1.560331
-0.134902 0.108593 1.560479
-0.133342 0.108709 1.562150
-0.131649 0.108719 1.562287
-0.129946 0.108719 1.562293
-0.128123 0.108619 1.560859
-0.126200 0.108430 1.558139
-0.124511 0.108440 1.558276
-0.122822 0.108449 1.558411
-0.121181 0.108502 1.559169
-0.119466 0.108489 1.558992
-0.117866 0.108582 1.560320
-0.116173 0.108591 1.560448
-0.114537 0.108654 1.561357
-0.112897 0.108714 1.562222
-0.111201 0.108723 1.562345
-0.109516 0.108743 1.562630
-0.107831 0.108762 1.562903
-0.106215 0.108853 1.564223
-0.104584 0.108932 1.565358
-0.102917 0.108975 1.565976
-0.101315 0.109090 1.567617
-0.099684 0.109177 1.568871
-0.098072 0.109287 1.570459
-0.096392 0.109325 1.571002
-0.094792 0.109457 1.572891
-0.093145 0.109537 1.574049
-0.091522 0.109651 1.575677
-0.089841 0.109696 1.576335
-0.088211 0.109808 1.577942
-0.086559 0.109897 1.579215
-0.084845 0.109908 1.579377
-0.083126 0.109914 1.579465
-0.081427 0.109946 1.579927
-0.079767 0.110034 1.581185
-0.078048 0.110042 1.581304
-0.076341 0.110068 1.581674
-0.074619 0.110073 1.581755
-0.072953 0.110164 1.583056
-0.071230 0.110169 1.583133
-0.069516 0.110191 1.583443
-0.067811 0.110228 1.583975
-0.066122 0.110292 1.584899
-0.064396 0.110297 1.584968
-0.062669 0.110302 1.585034
-0.060942 0.110306 1.585100
-0.059216 0.110311 1.585164
-0.057494 0.110326 1.585388
-0.055773 0.110342 1.585608
-0.054040 0.110336 1.585526
-0.052317 0.110350 1.585723
-0.050588 0.110353 1.585776
-0.048850 0.110334 1.585504
-0.047122 0.110338 1.585554
-0.045393 0.110341 1.585602
-0.043639 0.110279 1.584715
-0.041943 0.110365 1.585950
-0.040215 0.110373 1.586058
