ply
format ascii 1.0
comment generated by convert_depth_to_ply.py
element vertex 1677
property float x
property float y
property float z
end_header
-0.237100 -0.325311 1.897440
-0.233834 -0.325766 1.900095
-0.230533 -0.326185 1.902539
-0.227359 -0.326800 1.906124
-0.224021 -0.327196 1.908438
-0.220719 -0.327658 1.911132
-0.217376 -0.328074 1.913554
-0.214202 -0.328762 1.917571
-0.210953 -0.329358 1.921049
-0.207635 -0.329865 1.924006
-0.204234 -0.330255 1.926281
-0.200955 -0.330862 1.929817
-0.197596 -0.331357 1.932705
-0.194177 -0.331766 1.935093
-0.190910 -0.332458 1.939125
-0.187571 -0.333047 1.942564
-0.184175 -0.333558 1.945543
-0.180701 -0.333944 1.947797
-0.177390 -0.334657 1.951952
-0.173895 -0.335042 1.954200
-0.170557 -0.335754 1.958355
-0.167203 -0.336467 1.962512
-0.163834 -0.337180 1.966671
-0.160449 -0.337894 1.970832
-0.157049 -0.338607 1.974995
-0.153633 -0.339322 1.979160
-0.150062 -0.339720 1.981485
-0.146535 -0.340243 1.984532
-0.143012 -0.340799 1.987781
-0.139465 -0.341329 1.990869
-0.135845 -0.341705 1.993062
-0.132211 -0.342066 1.995167
-0.128579 -0.342454 1.997433
-0.124934 -0.342828 1.999613
-0.121345 -0.343387 2.002870
-0.117689 -0.343784 2.005186
-0.114057 -0.344280 2.008080
-0.110444 -0.344870 2.011525
-0.106845 -0.345548 2.015480
-0.103151 -0.345956 2.017857
-0.099535 -0.346667 2.022007
-0.095810 -0.347040 2.024180
-0.092076 -0.347412 2.026349
-0.088357 -0.347875 2.029052
-0.084659 -0.348468 2.032509
-0.080843 -0.348606 2.033316
-0.077074 -0.348971 2.035441
-0.073297 -0.349334 2.037562
-0.069511 -0.349697 2.039677
-0.065769 -0.350333 2.043390
-0.061965 -0.350699 2.045521
-0.058162 -0.351122 2.047992
-0.054385 -0.351771 2.051773
-0.050559 -0.352179 2.054157
-0.046712 -0.352496 2.056006
-0.042863 -0.352858 2.058115
-0.039006 -0.353219 2.060219
-0.035145 -0.353612 2.062512
-0.031271 -0.353967 2.064581
-0.027389 -0.354320 2.066644
-0.023522 -0.354999 2.070603
-0.019621 -0.355356 2.072683
-0.015728 -0.356059 2.076785
-0.011808 -0.356414 2.078857
-0.007887 -0.357117 2.082956
-0.003948 -0.357470 2.085012
0.000000 -0.357824 2.087077
0.003959 -0.358525 2.091170
0.007933 -0.359179 2.094985
0.011912 -0.359561 2.097212
0.015899 -0.359928 2.099350
0.019912 -0.360626 2.103422
0.023916 -0.360948 2.105302
0.027933 -0.361356 2.107680
0.031980 -0.361987 2.111362
0.036015 -0.362370 2.113593
0.040058 -0.362745 2.115782
0.044139 -0.363364 2.119394
0.048204 -0.363756 2.121682
0.052313 -0.364397 2.125420
0.056399 -0.364796 2.127746
0.060489 -0.365173 2.129942
0.064627 -0.365764 2.133394
0.068742 -0.366173 2.135776
0.072859 -0.366538 2.137907
0.077029 -0.367125 2.141329
0.081157 -0.367457 2.143268
0.085313 -0.367879 2.145726
0.089544 -0.368573 2.149775
0.093699 -0.368907 2.151723
0.097926 -0.369487 2.155104
0.102097 -0.369814 2.157015
0.106275 -0.370141 2.158921
0.110459 -0.370466 2.160820
0.114651 -0.370791 2.162713
0.118893 -0.371252 2.165400
0.123167 -0.371777 2.168466
0.127316 -0.371905 2.169208
0.131666 -0.372594 2.173227
0.135968 -0.373106 2.176214
0.140221 -0.373462 2.178290
0.144526 -0.373929 2.181017
0.148868 -0.374463 2.184132
0.153197 -0.374938 2.186899
0.157480 -0.375276 2.188875
0.161840 -0.375777 2.191797
0.166128 -0.376092 2.193629
0.170502 -0.376579 2.196474
0.174978 -0.377264 2.200466
0.179312 -0.377616 2.202521
0.183814 -0.378300 2.206509
0.188331 -0.378984 2.210497
0.192963 -0.379863 2.215628
0.197596 -0.380706 2.220546
0.202348 -0.381740 2.226577
0.207068 -0.382674 2.232020
0.211755 -0.383508 2.236886
0.216508 -0.384427 2.242248
0.221214 -0.385230 2.246930
0.225869 -0.385915 2.250929
0.230540 -0.386601 2.254927
0.235242 -0.387313 2.259080
0.239933 -0.387982 2.262983
0.244642 -0.388657 2.266917
0.249397 -0.389380 2.271134
0.254366 -0.390408 2.277130
0.259326 -0.391386 2.282835
0.264190 -0.392191 2.287531
0.269233 -0.393231 2.293597
0.274536 -0.394612 2.301650
0.279661 -0.395697 2.307982
0.284594 -0.396481 2.312557
0.289735 -0.397527 2.318658
0.294878 -0.398546 2.324598
0.299867 -0.399328 2.329160
0.305098 -0.400406 2.335449
0.310331 -0.401455 2.341569
0.315584 -0.402502 2.347671
0.320921 -0.403623 2.354212
0.326547 -0.405073 2.362671
0.331612 -0.405797 2.366891
0.336992 -0.406883 2.373226
0.342727 -0.408362 2.381852
0.348168 -0.409457 2.388239
0.353637 -0.410557 2.394656
0.359130 -0.411657 2.401072
0.364608 -0.412712 2.407224
0.369837 -0.413462 2.411601
0.375717 -0.414914 2.420067
0.381313 -0.416020 2.426522
0.386989 -0.417186 2.433323
0.392612 -0.418269 2.439637
0.397891 -0.418964 2.443690
0.403546 -0.420034 2.449932
0.408895 -0.420766 2.454199
0.414236 -0.421472 2.458318
0.419956 -0.422544 2.464570
0.425362 -0.423281 2.468868
0.430813 -0.424045 2.473325
0.436647 -0.425166 2.479864
0.442852 -0.426620 2.488346
0.448424 -0.427440 2.493131
0.454331 -0.428561 2.499665
0.460686 -0.430075 2.508497
0.467109 -0.431621 2.517515
0.473113 -0.432753 2.524120
0.479607 -0.434307 2.533180
0.486145 -0.435869 2.542290
0.492237 -0.437004 2.548910
0.498360 -0.438144 2.555563
0.504999 -0.439712 2.564705
0.511216 -0.440885 2.571551
0.517739 -0.442298 2.579794
0.523658 -0.443175 2.584905
0.529075 -0.443613 2.587462
0.530374 -0.440623 2.570019
0.506809 -0.417217 2.433502
0.469817 -0.383280 2.235559
0.464199 -0.375316 2.189106
0.462705 -0.370797 2.162747
0.464463 -0.368941 2.151922
0.466985 -0.367719 2.144792
0.469884 -0.366812 2.139505
0.473506 -0.366480 2.137570
0.477357 -0.366330 2.136691
0.480956 -0.365990 2.134708
0.484364 -0.365511 2.131918
0.487952 -0.365176 2.129962
0.491750 -0.365002 2.128947
0.495560 -0.364840 2.127999
0.498935 -0.364362 2.125215
0.502755 -0.364214 2.124352
0.506556 -0.364055 2.123426
0.510336 -0.363884 2.122426
0.513605 -0.363354 2.119334
0.516947 -0.362883 2.116588
0.520377 -0.362481 2.114242
0.523977 -0.362203 2.112620
0.527767 -0.362059 2.111779
0.531522 -0.361893 2.110813
0.535742 -0.362045 2.111697
0.539490 -0.361877 2.110718
0.543265 -0.361729 2.109856
0.547041 -0.361585 2.109015
0.551273 -0.361741 2.109929
0.555004 -0.361569 2.108926
0.559308 -0.361771 2.110102
0.563472 -0.361880 2.110736
0.567305 -0.361775 2.110125
0.571066 -0.361627 2.109262
0.574771 -0.361446 2.108206
0.578474 -0.361265 2.107152
0.582174 -0.361086 2.106107
0.585927 -0.360941 2.105263
0.590167 -0.361097 2.106170
0.593860 -0.360918 2.105125
0.597594 -0.360766 2.104240
0.601859 -0.360935 2.105223
0.606063 -0.361064 2.105980
0.609839 -0.360940 2.105252
0.614107 -0.361105 2.106218
0.618319 -0.361236 2.106982
0.622607 -0.361410 2.107996
0.626290 -0.361233 2.106961
0.629945 -0.361041 2.105844
-0.563185 -0.313137 1.847589
-0.559945 -0.313282 1.848440
-0.555625 -0.312820 1.845718
-0.551862 -0.312668 1.844819
-0.548142 -0.312538 1.844053
-0.544367 -0.312376 1.843096
-0.540589 -0.312209 1.842110
-0.536370 -0.311784 1.839604
-0.532587 -0.311608 1.838566
-0.528856 -0.311461 1.837697
-0.525087 -0.311289 1.836684
-0.520945 -0.310892 1.834343
-0.517629 -0.310987 1.834900
-0.513902 -0.310834 1.834000
-0.510147 -0.310662 1.832982
-0.506425 -0.310508 1.832073
-0.502805 -0.310414 1.831522
-0.499093 -0.310262 1.830625
-0.495376 -0.310105 1.829697
-0.491645 -0.309937 1.828706
-0.488275 -0.309995 1.829051
-0.484563 -0.309836 1.828112
-0.480527 -0.309465 1.825925
-0.477265 -0.309593 1.826674
-0.473573 -0.309440 1.825772
-0.469875 -0.309281 1.824834
-0.466476 -0.309318 1.825054
-0.462911 -0.309244 1.824620
-0.459506 -0.309278 1.824819
-0.455955 -0.309213 1.824433
-0.452262 -0.309050 1.823473
-0.449005 -0.309184 1.824265
-0.445305 -0.309014 1.823259
-0.441863 -0.309020 1.823298
-0.438344 -0.308974 1.823022
-0.435065 -0.309096 1.823744
-0.431380 -0.308930 1.822764
-0.428095 -0.309050 1.823470
-0.424413 -0.308882 1.822483
-0.421134 -0.309008 1.823226
-0.417839 -0.309124 1.823910
-0.414158 -0.308955 1.822911
-0.410871 -0.309078 1.823637
-0.407578 -0.309200 1.824355
-0.404283 -0.309321 1.825072
-0.400601 -0.309146 1.824041
-0.397292 -0.309258 1.824703
-0.393987 -0.309376 1.825397
-0.390680 -0.309494 1.826094
-0.387154 -0.309439 1.825768
-0.383678 -0.309424 1.825679
-0.380367 -0.309542 1.826377
-0.377043 -0.309652 1.827025
-0.373724 -0.309768 1.827711
-0.370414 -0.309894 1.828453
-0.367425 -0.310294 1.830812
-0.364084 -0.310400 1.831440
-0.360747 -0.310513 1.832104
-0.357399 -0.310617 1.832721
-0.354070 -0.310741 1.833450
-0.351043 -0.311134 1.835772
-0.347689 -0.311243 1.836414
-0.344589 -0.311585 1.838430
-0.341295 -0.311755 1.839436
-0.337936 -0.311869 1.840105
-0.334876 -0.312264 1.842439
-0.331507 -0.312376 1.843100
-0.328382 -0.312724 1.845153
-0.325310 -0.313129 1.847543
-0.321959 -0.313273 1.848389
-0.318866 -0.313673 1.850750
-0.315739 -0.314047 1.852958
-0.312629 -0.314448 1.855324
-0.309241 -0.314575 1.856074
-0.306094 -0.314952 1.858298
-0.302966 -0.315359 1.860699
-0.299823 -0.315759 1.863057
-0.296397 -0.315867 1.863694
-0.292949 -0.315953 1.864205
-0.289786 -0.316354 1.866567
-0.286608 -0.316748 1.868892
-0.283170 -0.316860 1.869552
-0.279957 -0.317230 1.871736
-0.276760 -0.317627 1.874082
-0.273282 -0.317709 1.874566
-0.270068 -0.318104 1.876897
-0.266842 -0.318495 1.879198
-0.263376 -0.318606 1.879857
-0.260137 -0.318999 1.882173
-0.256866 -0.319362 1.884315
-0.253604 -0.319747 1.886589
-0.250338 -0.320139 1.888901
-0.246855 -0.320260 1.889618
-0.243577 -0.320655 1.891943
-0.240286 -0.321043 1.894238
-0.237000 -0.321451 1.896640
-0.233866 -0.322080 1.900354
-0.230590 -0.322530 1.903009
-0.227261 -0.322919 1.905304
-0.223932 -0.323321 1.907678
-0.220739 -0.323936 1.911305
-0.217378 -0.324320 1.913569
-0.214062 -0.324786 1.916320
-0.210890 -0.325490 1.920474
-0.207508 -0.325889 1.922827
-0.204300 -0.326580 1.926906
-0.200888 -0.326965 1.929178
-0.197599 -0.327567 1.932727
-0.194235 -0.328066 1.935670
-0.190908 -0.328647 1.939102
-0.187453 -0.329026 1.941339
-0.184061 -0.329535 1.944343
-0.180692 -0.330106 1.947708
-0.177275 -0.330610 1.950681
-0.173951 -0.331314 1.954836
-0.170543 -0.331884 1.958198
-0.167104 -0.332417 1.961345
-0.163807 -0.333265 1.966345
-0.160502 -0.334134 1.971474
-0.157100 -0.334840 1.975639
-0.153537 -0.335228 1.977929
-0.150104 -0.335924 1.982038
-0.146583 -0.336457 1.985180
-0.143058 -0.337007 1.988429
-0.139453 -0.337392 1.990700
-0.135889 -0.337903 1.993712
-0.132259 -0.338274 1.995901
-0.128691 -0.338828 1.999171
-0.125048 -0.339213 2.001445
-0.121392 -0.339586 2.003645
-0.117727 -0.339958 2.005841
-0.114166 -0.340662 2.009994
-0.110480 -0.341033 2.012183
-0.106821 -0.341515 2.015025
-0.103185 -0.342107 2.018517
-0.099504 -0.342593 2.021383
-0.095841 -0.343179 2.024843
-0.092106 -0.343547 2.027012
-0.088389 -0.344019 2.029799
-0.084632 -0.344367 2.031851
-0.080870 -0.344728 2.033982
-0.077157 -0.345346 2.037631
-0.073376 -0.345710 2.039778
-0.069587 -0.346073 2.041921
-0.065790 -0.346436 2.044059
-0.061995 -0.346856 2.046538
-0.058228 -0.347497 2.050320
-0.054403 -0.347857 2.052445
-0.050569 -0.348219 2.054582
-0.046727 -0.348575 2.056679
-0.042882 -0.348974 2.059034
-0.039019 -0.349289 2.060894
-0.035156 -0.349676 2.063177
-0.031281 -0.350029 2.065257
-0.027398 -0.350378 2.067321
-0.023529 -0.351050 2.071282
-0.019628 -0.351402 2.073363
-0.015719 -0.351785 2.075621
-0.011812 -0.352449 2.079538
-0.007882 -0.352803 2.081624
-0.003945 -0.353149 2.083667
0.000000 -0.353843 2.087761
0.003957 -0.354211 2.089932
0.007928 -0.354871 2.093827
0.011905 -0.355249 2.096062
0.015903 -0.355902 2.099911
0.019899 -0.356268 2.102074
0.023903 -0.356631 2.104212
0.027937 -0.357270 2.107986
0.031962 -0.357647 2.110207
0.035993 -0.358006 2.112326
0.040063 -0.358633 2.116024
0.044116 -0.359019 2.118304
0.048175 -0.359375 2.120405
0.052287 -0.360048 2.124374
0.056407 -0.360674 2.128070
0.060492 -0.361007 2.130033
0.064600 -0.361427 2.132508
0.068701 -0.361761 2.134483
0.072861 -0.362353 2.137975
0.076997 -0.362767 2.140415
0.081127 -0.363114 2.142466
0.085341 -0.363786 2.146428
0.089549 -0.364375 2.149904
0.093729 -0.364802 2.152427
0.097893 -0.365132 2.154369
0.102063 -0.365460 2.156306
0.106245 -0.365801 2.158316
0.110430 -0.366127 2.160240
0.114621 -0.366452 2.162157
0.118890 -0.366993 2.165354
0.123141 -0.367444 2.168013
0.127357 -0.367767 2.169916
0.131585 -0.368101 2.171887
0.135944 -0.368769 2.175830
0.140261 -0.369290 2.178907
0.144573 -0.369769 2.181728
0.148832 -0.370087 2.183606
0.153102 -0.370415 2.185541
0.157452 -0.370915 2.188491
0.161731 -0.371226 2.190326
0.166095 -0.371712 2.193195
0.170475 -0.372208 2.196122
0.174864 -0.372702 2.199034
0.179261 -0.373188 2.201902
0.183687 -0.373710 2.204982
0.188201 -0.374385 2.208966
0.192834 -0.375263 2.214148
0.197466 -0.376101 2.219094
0.202030 -0.376777 2.223080
0.206806 -0.377814 2.229196
0.211611 -0.378860 2.235369
0.216364 -0.379773 2.240754
0.221078 -0.380585 2.245550
0.225735 -0.381270 2.249588
0.230389 -0.381925 2.253456
0.235237 -0.382872 2.259040
0.240004 -0.383654 2.263654
0.244721 -0.384331 2.267651
0.249453 -0.385009 2.271648
0.254211 -0.385702 2.275740
0.259160 -0.386657 2.281374
0.264202 -0.387717 2.287631
0.269069 -0.388492 2.292201
0.274357 -0.389839 2.300147
0.279476 -0.390908 2.306457
0.284398 -0.391672 2.310966
0.289503 -0.392662 2.316803
0.294688 -0.393728 2.323097
0.299660 -0.394484 2.327554
0.305134 -0.395868 2.335723
0.310143 -0.396619 2.340154
0.315421 -0.397687 2.346453
0.320998 -0.399097 2.354775
0.326352 -0.400196 2.361257
0.331718 -0.401280 2.367652
0.337086 -0.402336 2.373887
0.342532 -0.403457 2.380501
0.348279 -0.404899 2.389006
0.354073 -0.406357 2.397609
0.359245 -0.407074 2.401842
0.364760 -0.408157 2.408227
0.370306 -0.409247 2.414663
0.375873 -0.410333 2.421068
0.381490 -0.411448 2.427648
0.387446 -0.412897 2.436195
0.393099 -0.413993 2.442664
0.398018 -0.414299 2.444470
0.403694 -0.415377 2.450830
0.409030 -0.416085 2.455009
0.414368 -0.416779 2.459101
0.420179 -0.417928 2.465881
0.425893 -0.418956 2.471949
0.431301 -0.419665 2.476127
0.437137 -0.420769 2.482644
0.442992 -0.421869 2.489136
0.448860 -0.422958 2.495558
0.454769 -0.424062 2.502071
0.460832 -0.425285 2.509292
0.467147 -0.426714 2.517720
0.473263 -0.427934 2.524919
0.479759 -0.429470 2.533981
0.486175 -0.430904 2.542443
0.492253 -0.432014 2.548991
0.498518 -0.433264 2.556370
0.505158 -0.434814 2.565515
0.511363 -0.435963 2.572290
0.517246 -0.436818 2.577339
0.523080 -0.437617 2.582052
0.528480 -0.438041 2.584553
0.517291 -0.424832 2.506619
0.473322 -0.385188 2.272709
0.464264 -0.374414 2.209136
0.461698 -0.369020 2.177309
0.461624 -0.365696 2.157696
0.463438 -0.363912 2.147174
0.465960 -0.362711 2.140087
0.468649 -0.361659 2.133881
0.472249 -0.361322 2.131894
0.476103 -0.361184 2.131076
0.479937 -0.361033 2.130188
0.483768 -0.360882 2.129298
0.487580 -0.360720 2.128337
0.491401 -0.360567 2.127435
0.495230 -0.360422 2.126583
0.499042 -0.360267 2.125668
0.502594 -0.359929 2.123674
0.506197 -0.359633 2.121923
0.509976 -0.359464 2.120929
0.513274 -0.358962 2.117967
0.516581 -0.358474 2.115089
0.520322 -0.358293 2.114021
0.524088 -0.358131 2.113066
0.527878 -0.357989 2.112225
0.531634 -0.357825 2.111258
0.535405 -0.357674 2.110368
0.539160 -0.357514 2.109425
0.543432 -0.357697 2.110504
0.547170 -0.357529 2.109513
0.550927 -0.357375 2.108604
0.555174 -0.357539 2.109572
0.559351 -0.357657 2.110265
0.563229 -0.357582 2.109824
0.566956 -0.357413 2.108829
0.571092 -0.357503 2.109359
0.574937 -0.357410 2.108811
0.578650 -0.357238 2.107795
0.582352 -0.357061 2.106749
0.586048 -0.356882 2.105697
0.589799 -0.356740 2.104856
0.593494 -0.356566 2.103828
0.597723 -0.356713 2.104695
0.601431 -0.356549 2.103727
0.605699 -0.356717 2.104718
0.609968 -0.356883 2.105698
0.614236 -0.357046 2.106661
0.617935 -0.356879 2.105674
0.622208 -0.357043 2.106645
0.625903 -0.356876 2.105657
0.630130 -0.357012 2.106459
-0.563321 -0.309585 1.848034
-0.559565 -0.309443 1.847186
-0.555257 -0.308992 1.844492
-0.551516 -0.308853 1.843663
-0.547778 -0.308713 1.842829
-0.544041 -0.308573 1.841990
-0.540271 -0.308411 1.841029
-0.536484 -0.308238 1.839995
-0.532746 -0.308091 1.839117
-0.529011 -0.307944 1.838237
-0.525245 -0.307776 1.837236
-0.521076 -0.307369 1.834806
-0.517356 -0.307223 1.833935
-0.513645 -0.307080 1.833081
-0.509898 -0.306913 1.832086
-0.506184 -0.306765 1.831200
-0.502957 -0.306912 1.832075
-0.499140 -0.306698 1.830799
-0.495417 -0.306539 1.829850
-0.491794 -0.306440 1.829260
-0.488444 -0.306511 1.829682
-0.484730 -0.306353 1.828742
-0.481012 -0.306190 1.827768
-0.477418 -0.306105 1.827260
-0.473717 -0.305949 1.826327
-0.470018 -0.305792 1.825390
-0.466765 -0.305925 1.826187
-0.463052 -0.305756 1.825177
-0.459646 -0.305789 1.825377
-0.456103 -0.305731 1.825028
-0.452401 -0.305564 1.824031
-0.449142 -0.305697 1.824823
-0.445701 -0.305706 1.824881
-0.442178 -0.305659 1.824597
-0.438724 -0.305659 1.824600
-0.435209 -0.305617 1.824349
-0.431740 -0.305606 1.824283
-0.428238 -0.305572 1.824080
-0.424757 -0.305552 1.823960
-0.421263 -0.305523 1.823788
-0.417979 -0.305647 1.824525
-0.414286 -0.305471 1.823474
-0.410998 -0.305592 1.824201
-0.407704 -0.305713 1.824919
-0.404017 -0.305537 1.823870
-0.400716 -0.305653 1.824561
-0.397415 -0.305771 1.825268
-0.394109 -0.305888 1.825963
-0.390801 -0.306005 1.826661
-0.387115 -0.305825 1.825587
-0.383797 -0.305935 1.826247
-0.380485 -0.306052 1.826945
-0.377160 -0.306161 1.827594
-0.373841 -0.306276 1.828281
-0.370508 -0.306383 1.828920
-0.367429 -0.306703 1.830830
-0.364198 -0.306901 1.832012
-0.360860 -0.307012 1.832676
-0.357511 -0.307116 1.833294
-0.354166 -0.307225 1.833948
-0.350814 -0.307330 1.834575
-0.347797 -0.307735 1.836989
-0.344431 -0.307835 1.837586
-0.341073 -0.307944 1.838239
-0.338026 -0.308340 1.840599
-0.334658 -0.308447 1.841241
-0.331595 -0.308841 1.843594
-0.328483 -0.309197 1.845717
-0.325143 -0.309344 1.846593
-0.322061 -0.309742 1.848971
-0.318930 -0.310101 1.851116
-0.315562 -0.310236 1.851919
-0.312452 -0.310630 1.854273
-0.309339 -0.311030 1.856660
-0.306189 -0.311402 1.858878
-0.303061 -0.311804 1.861281
-0.299639 -0.311910 1.861912
-0.296491 -0.312307 1.864283
-0.293041 -0.312393 1.864796
-0.289875 -0.312786 1.867141
-0.286699 -0.313178 1.869484
-0.283244 -0.313272 1.870042
-0.280046 -0.313655 1.872330
-0.276848 -0.314048 1.874677
-0.273382 -0.314145 1.875253
-0.270171 -0.314540 1.877614
-0.266926 -0.314906 1.879796
-0.263460 -0.315016 1.880455
-0.260220 -0.315404 1.882772
-0.256946 -0.315761 1.884903
-0.253684 -0.316145 1.887191
-0.250418 -0.316532 1.889503
-0.246934 -0.316652 1.890221
-0.243655 -0.317042 1.892547
-0.240363 -0.317426 1.894842
-0.237065 -0.317815 1.897159
-0.233756 -0.318200 1.899461
-0.230615 -0.318829 1.903216
-0.227283 -0.319210 1.905489
-0.223942 -0.319591 1.907765
-0.220646 -0.320049 1.910496
-0.217291 -0.320435 1.912802
-0.214073 -0.321041 1.916421
-0.210752 -0.321509 1.919214
-0.207566 -0.322205 1.923368
-0.204168 -0.322589 1.925662
-0.200953 -0.323282 1.929797
-0.197531 -0.323662 1.932066
-0.194290 -0.324358 1.936221
-0.190847 -0.324737 1.938484
-0.187397 -0.325119 1.940761
-0.184114 -0.325812 1.944901
-0.180641 -0.326190 1.947155
-0.177332 -0.326886 1.951308
-0.173839 -0.327265 1.953573
-0.170501 -0.327958 1.957710
-0.167148 -0.328654 1.961866
-0.163780 -0.329351 1.966024
-0.160397 -0.330048 1.970184
-0.156997 -0.330745 1.974347
-0.153583 -0.331443 1.978511
-0.150152 -0.332141 1.982677
-0.146564 -0.332516 1.984919
-0.143105 -0.333212 1.989071
-0.139494 -0.333584 1.991292
-0.135876 -0.333958 1.993523
-0.132302 -0.334464 1.996545
-0.128737 -0.335023 1.999884
-0.125089 -0.335393 2.002091
-0.121431 -0.335762 2.004292
-0.117808 -0.336250 2.007206
-0.114203 -0.336826 2.010644
-0.110516 -0.337193 2.012834
-0.106924 -0.337885 2.016967
-0.103218 -0.338254 2.019170
-0.099533 -0.338721 2.021958
-0.095872 -0.339314 2.025497
-0.092136 -0.339678 2.027668
-0.088414 -0.340131 2.030372
-0.084659 -0.340489 2.032509
-0.080896 -0.340846 2.034641
-0.077182 -0.341457 2.038291
-0.073400 -0.341817 2.040439
-0.069610 -0.342176 2.042582
-0.065812 -0.342534 2.044720
-0.062005 -0.342893 2.046860
-0.058200 -0.343306 2.049326
-0.054376 -0.343662 2.051450
-0.050585 -0.344295 2.055230
-0.046703 -0.344362 2.055634
-0.042855 -0.344711 2.057718
-0.038998 -0.345060 2.059797
-0.035164 -0.345707 2.063662
-0.031289 -0.346058 2.065757
-0.027405 -0.346409 2.067849
-0.023516 -0.346782 2.070080
-0.019634 -0.347445 2.074035
-0.015723 -0.347793 2.076112
-0.011815 -0.348480 2.080212
-0.007885 -0.348826 2.082280
-0.003946 -0.349172 2.084342
0.000000 -0.349516 2.086399
0.003958 -0.350202 2.090492
0.007924 -0.350550 2.092570
0.011908 -0.351212 2.096520
0.015894 -0.351572 2.098669
0.019904 -0.352229 2.102595
0.023910 -0.352596 2.104786
0.027922 -0.352936 2.106811
0.031942 -0.353279 2.108858
0.035999 -0.353913 2.112646
0.040042 -0.354294 2.114917
0.044124 -0.354923 2.118674
0.048180 -0.355255 2.120655
0.052254 -0.355651 2.123020
0.056370 -0.356262 2.126664
0.060464 -0.356660 2.129041
0.064555 -0.356996 2.131047
0.068705 -0.357593 2.134613
0.072830 -0.358002 2.137053
0.076947 -0.358335 2.139043
0.081129 -0.358918 2.142523
0.085285 -0.359338 2.145027
0.089515 -0.360016 2.149075
0.093732 -0.360589 2.152495
0.097925 -0.361019 2.155066
0.102096 -0.361344 2.157003
0.106241 -0.361549 2.158227
0.110461 -0.361990 2.160860
0.114654 -0.362312 2.162779
0.118925 -0.362849 2.165987
0.123134 -0.363167 2.167886
0.127348 -0.363481 2.169763
0.131623 -0.363943 2.172516
0.135931 -0.364463 2.175622
0.140230 -0.364932 2.178421
0.144480 -0.365250 2.180320
0.148880 -0.365918 2.184310
0.153147 -0.366232 2.186182
0.157420 -0.366545 2.188048
0.161701 -0.366859 2.189924
0.165988 -0.367169 2.191777
0.170446 -0.367835 2.195752
0.174828 -0.368309 2.198581
0.179235 -0.368812 2.201581
0.183735 -0.369479 2.205567
0.188070 -0.369791 2.207429
0.192781 -0.370814 2.213531
0.197328 -0.371484 2.217535
0.201889 -0.372154 2.221533
0.206666 -0.373183 2.227678
0.211465 -0.374213 2.233824
0.216219 -0.375123 2.239254
0.220927 -0.375920 2.244016
0.225578 -0.376591 2.248020
0.230394 -0.377509 2.253499
0.235147 -0.378292 2.258175
0.239846 -0.378962 2.262169
0.244560 -0.379631 2.266164
0.249292 -0.380304 2.270182
0.254282 -0.381341 2.276372
0.259045 -0.382010 2.280368
0.264082 -0.383053 2.286595
0.268884 -0.383728 2.290621
0.274177 -0.385070 2.298636
0.279291 -0.386124 2.304924
0.284429 -0.387178 2.311214
0.289355 -0.387915 2.315619
0.294534 -0.388965 2.321883
0.299702 -0.389970 2.327882
0.304934 -0.391027 2.334191
0.310194 -0.392090 2.340536
0.315476 -0.393149 2.346863
0.320817 -0.394253 2.353451
0.326437 -0.395664 2.361874
0.331805 -0.396736 2.368269
0.337192 -0.397802 2.374634
0.342611 -0.398876 2.381048
0.348390 -0.400336 2.389764
0.353862 -0.401412 2.396183
0.359359 -0.402487 2.402603
0.364875 -0.403557 2.408990
0.370424 -0.404636 2.415428
0.375991 -0.405709 2.421834
0.381591 -0.406790 2.428290
0.387235 -0.407893 2.434870
0.392862 -0.408951 2.441188
0.398144 -0.409631 2.445245
0.403493 -0.410362 2.449614
0.409159 -0.411396 2.455783
0.414499 -0.412082 2.459880
0.420257 -0.413164 2.466338
0.426047 -0.414254 2.472845
0.431507 -0.415002 2.477307
0.437696 -0.416428 2.485820
0.443213 -0.417191 2.490375
0.449021 -0.418209 2.496453
0.454931 -0.419300 2.502966
0.460976 -0.420492 2.510078
0.466952 -0.421596 2.516671
0.473411 -0.423110 2.525710
0.479784 -0.424518 2.534116
0.485976 -0.425740 2.541406
0.492407 -0.427144 2.549788
0.498528 -0.428255 2.556422
0.504823 -0.429493 2.563810
0.510847 -0.430479 2.569698
0.516541 -0.431170 2.573825
0.520888 -0.430736 2.571230
0.520662 -0.426562 2.546317
0.479135 -0.388939 2.321729
0.463318 -0.372681 2.224678
0.460582 -0.367142 2.191616
0.460173 -0.363541 2.170119
0.460594 -0.360653 2.152879
0.462409 -0.358899 2.142406
0.464919 -0.357709 2.135306
0.467848 -0.356859 2.130231
0.471454 -0.356536 2.128304
0.475288 -0.356389 2.127427
0.479358 -0.356421 2.127616
0.483178 -0.356268 2.126701
0.486785 -0.355961 2.124871
0.490600 -0.355810 2.123969
0.494423 -0.355667 2.123117
0.498228 -0.355514 2.122203
0.502042 -0.355370 2.121341
0.505837 -0.355215 2.120414
0.509339 -0.354857 2.118280
0.512918 -0.354559 2.116502
0.516213 -0.354070 2.113583
0.519973 -0.353906 2.112603
0.523736 -0.353746 2.111648
0.527524 -0.353605 2.110806
0.531285 -0.353448 2.109872
0.535033 -0.353285 2.108899
0.539294 -0.353461 2.109948
0.543066 -0.353317 2.109085
0.547193 -0.353403 2.109602
0.550933 -0.353240 2.108630
0.554800 -0.353160 2.108152
0.558977 -0.353277 2.108851
0.562833 -0.353192 2.108342
0.566981 -0.353289 2.108922
0.570810 -0.353188 2.108318
0.574549 -0.353032 2.107388
0.578260 -0.352862 2.106372
0.581959 -0.352687 2.105327
0.585659 -0.352515 2.104302
0.589380 -0.352358 2.103363
0.593569 -0.352481 2.104094
0.597319 -0.352343 2.103271
0.601525 -0.352474 2.104055
0.605831 -0.352661 2.105174
0.609563 -0.352515 2.104301
0.613828 -0.352676 2.105263
0.618086 -0.352832 2.106189
0.622373 -0.353001 2.107203
0.626054 -0.352828 2.106166
0.629717 -0.352646 2.105079
-0.562936 -0.305749 1.846773
-0.559715 -0.305899 1.847681
-0.554870 -0.305158 1.843208
-0.551635 -0.305300 1.844061
-0.547903 -0.305166 1.843251
-0.544146 -0.305016 1.842346
-0.540369 -0.304853 1.841362
-0.536165 -0.304445 1.838899
-0.532438 -0.304305 1.838051
-0.528710 -0.304162 1.837189
-0.524888 -0.303963 1.835988
-0.521148 -0.303809 1.835058
-0.517510 -0.303713 1.834480
-0.513789 -0.303567 1.833596
-0.510041 -0.303402 1.832602
-0.506329 -0.303257 1.831724
-0.503008 -0.303346 1.832259
-0.499288 -0.303194 1.831340
-0.495567 -0.303038 1.830402
-0.491942 -0.302940 1.829808
-0.488590 -0.303010 1.830231
-0.484876 -0.302854 1.829291
-0.481287 -0.302775 1.828813
-0.477562 -0.302609 1.827809
-0.473868 -0.302460 1.826910
-0.470474 -0.302502 1.827160
-0.466908 -0.302433 1.826746
-0.463490 -0.302459 1.826904
-0.459944 -0.302402 1.826558
-0.456241 -0.302240 1.825580
-0.452980 -0.302370 1.826366
-0.449285 -0.302211 1.825405
-0.446012 -0.302335 1.826152
-0.442318 -0.302174 1.825179
-0.439040 -0.302296 1.825917
-0.435573 -0.302289 1.825874
-0.432066 -0.302253 1.825660
-0.428368 -0.302083 1.824634
-0.424889 -0.302066 1.824530
-0.421392 -0.302035 1.824343
-0.418107 -0.302157 1.825081
-0.414609 -0.302126 1.824894
-0.411123 -0.302104 1.824758
-0.407609 -0.302060 1.824492
-0.404137 -0.302047 1.824413
-0.400838 -0.302164 1.825120
-0.397537 -0.302281 1.825828
-0.394230 -0.302396 1.826523
-0.390691 -0.302334 1.826145
-0.387234 -0.302334 1.826148
-0.383915 -0.302443 1.826808
-0.380602 -0.302559 1.827507
-0.377276 -0.302667 1.828157
-0.373956 -0.302780 1.828844
-0.370623 -0.302886 1.829484
-0.367536 -0.303197 1.831361
-0.364310 -0.303398 1.832577
-0.360717 -0.303294 1.831948
-0.357520 -0.303525 1.833339
-0.354276 -0.303719 1.834515
-0.350918 -0.303820 1.835123
-0.347896 -0.304215 1.837510
-0.344536 -0.304320 1.838145
-0.341175 -0.304427 1.838787
-0.337801 -0.304524 1.839374
-0.334757 -0.304922 1.841782
-0.331636 -0.305259 1.843817
-0.328315 -0.305418 1.844776
-0.325193 -0.305766 1.846879
-0.321846 -0.305909 1.847742
-0.318754 -0.306299 1.850096
-0.315626 -0.306663 1.852299
-0.312513 -0.307050 1.854632
-0.309134 -0.307181 1.855427
-0.306007 -0.307570 1.857774
-0.302877 -0.307964 1.860153
-0.299732 -0.308351 1.862492
-0.296294 -0.308443 1.863046
-0.293125 -0.308821 1.865330
-0.289685 -0.308919 1.865920
-0.286510 -0.309304 1.868250
-0.283333 -0.309698 1.870628
-0.280134 -0.310077 1.872918
-0.276682 -0.310183 1.873557
-0.273468 -0.310561 1.875842
-0.270256 -0.310952 1.878204
-0.267031 -0.311337 1.880530
-0.263777 -0.311700 1.882718
-0.260530 -0.312080 1.885015
-0.257278 -0.312465 1.887339
-0.253764 -0.312539 1.887785
-0.250497 -0.312922 1.890099
-0.247211 -0.313292 1.892338
-0.243732 -0.313426 1.893144
-0.240439 -0.313806 1.895440
-0.237140 -0.314190 1.897758
-0.233830 -0.314571 1.900061
-0.230511 -0.314951 1.902360
-0.227183 -0.315332 1.904655
-0.223846 -0.315711 1.906947
-0.220657 -0.316314 1.910590
-0.217351 -0.316769 1.913336
-0.213988 -0.317153 1.915655
-0.210755 -0.317746 1.919241
-0.207428 -0.318217 1.922084
-0.204164 -0.318803 1.925624
-0.200819 -0.319281 1.928508
-0.197525 -0.319859 1.932002
-0.194162 -0.320346 1.934945
-0.190836 -0.320914 1.938375
-0.187382 -0.321284 1.940611
-0.183991 -0.321779 1.943600
-0.180522 -0.322155 1.945872
-0.177215 -0.322843 1.950024
-0.173888 -0.323522 1.954126
-0.170479 -0.324074 1.957461
-0.167038 -0.324590 1.960575
-0.163828 -0.325587 1.966598
-0.160443 -0.326276 1.970760
-0.156970 -0.326813 1.974003
-0.153482 -0.327343 1.977209
-0.150053 -0.328033 1.981373
-0.146608 -0.328718 1.985510
-0.143011 -0.329091 1.987763
-0.139537 -0.329775 1.991899
-0.135919 -0.330147 1.994146
-0.132344 -0.330650 1.997182
-0.128706 -0.331017 1.999399
-0.125128 -0.331569 2.002730
-0.121470 -0.331933 2.004933
-0.117846 -0.332418 2.007859
-0.114239 -0.332985 2.011286
-0.110551 -0.333348 2.013477
-0.106892 -0.333825 2.016356
-0.103251 -0.334397 2.019815
-0.099564 -0.334859 2.022605
-0.095903 -0.335445 2.026145
-0.092166 -0.335807 2.028332
-0.088506 -0.336492 2.032467
-0.084686 -0.336606 2.033159
-0.080923 -0.336966 2.035332
-0.077207 -0.337564 2.038943
-0.073424 -0.337920 2.041092
-0.069579 -0.338014 2.041659
-0.065833 -0.338629 2.045375
-0.062025 -0.338982 2.047510
-0.058209 -0.339335 2.049639
-0.054393 -0.339738 2.052073
-0.050552 -0.340037 2.053882
-0.046711 -0.340387 2.055996
-0.042862 -0.340729 2.058057
-0.039005 -0.341077 2.060161
-0.035140 -0.341424 2.062259
-0.031268 -0.341779 2.064401
-0.027389 -0.342148 2.066631
-0.023521 -0.342796 2.070543
-0.019621 -0.343148 2.072674
-0.015728 -0.343828 2.076777
-0.011808 -0.344171 2.078848
-0.007880 -0.344516 2.080933
-0.003944 -0.344854 2.082975
0.000000 -0.345531 2.087067
0.003955 -0.345871 2.089121
0.007926 -0.346548 2.093210
0.011901 -0.346887 2.095254
0.015899 -0.347563 2.099341
0.019911 -0.348214 2.103269
0.023916 -0.348546 2.105274
0.027931 -0.348912 2.107486
0.031951 -0.349246 2.109506
0.035980 -0.349580 2.111521
0.040048 -0.350198 2.115256
0.044102 -0.350585 2.117592
0.048157 -0.350917 2.119600
0.052219 -0.351248 2.121595
0.056342 -0.351911 2.125603
0.060424 -0.352247 2.127633
0.064512 -0.352577 2.129624
0.068658 -0.353163 2.133161
0.072781 -0.353572 2.135637
0.076950 -0.354151 2.139132
0.081096 -0.354568 2.141649
0.085310 -0.355231 2.145657
0.089541 -0.355902 2.149706
0.093698 -0.356233 2.151710
0.097955 -0.356900 2.155737
0.102128 -0.357221 2.157674
0.106274 -0.357425 2.158906
0.110458 -0.357739 2.160805
0.114691 -0.358180 2.163470
0.118962 -0.358709 2.166664
0.123173 -0.359026 2.168578
0.127389 -0.359337 2.170455
0.131665 -0.359793 2.173210
0.136029 -0.360454 2.177203
0.140275 -0.360771 2.179116
0.144525 -0.361082 2.180997
0.148860 -0.361582 2.184013
0.153124 -0.361887 2.185858
0.157468 -0.362360 2.188716
0.161752 -0.362673 2.190605
0.166039 -0.362980 2.192459
0.170410 -0.363449 2.195291
0.174805 -0.363946 2.198295
0.179117 -0.364250 2.200133
0.183614 -0.364910 2.204116
0.188127 -0.365569 2.208098
0.192654 -0.366227 2.212074
0.197383 -0.367235 2.218162
0.201948 -0.367901 2.222182
0.206651 -0.368784 2.227519
0.211326 -0.369585 2.232352
0.216146 -0.370603 2.238504
0.220919 -0.371502 2.243934
0.225646 -0.372291 2.248700
0.230311 -0.372952 2.252693
0.235154 -0.373870 2.258236
0.239918 -0.374633 2.262844
0.244636 -0.375298 2.266865
0.249368 -0.375962 2.270876
0.254296 -0.376893 2.276499
0.259127 -0.377653 2.281089
0.264164 -0.378682 2.287305
0.268966 -0.379347 2.291317
0.274263 -0.380678 2.299362
0.279378 -0.381719 2.305645
0.284288 -0.382451 2.310069
0.289446 -0.383491 2.316350
0.294625 -0.384527 2.322607
0.299796 -0.385521 2.328610
0.305022 -0.386557 2.334867
0.310028 -0.387289 2.339289
0.315567 -0.388655 2.347542
0.320887 -0.389719 2.353966
0.326540 -0.391151 2.362617
0.331909 -0.392210 2.369011
0.337298 -0.393264 2.375380
0.342710 -0.394316 2.381733
0.348159 -0.395383 2.388180
0.353961 -0.396818 2.396850
0.359462 -0.397885 2.403292
0.364639 -0.398570 2.407429
0.370188 -0.399640 2.413892
0.375756 -0.400704 2.420320
0.381338 -0.401757 2.426678
0.386977 -0.402845 2.433249
0.392601 -0.403891 2.439566
0.397914 -0.404596 2.443828
0.403563 -0.405623 2.450033
0.408877 -0.406294 2.454086
0.414273 -0.407032 2.458540
0.420035 -0.408107 2.465037
0.425828 -0.409189 2.471570
0.431993 -0.410601 2.480098
0.437913 -0.411753 2.487056
0.443702 -0.412758 2.493125
0.449599 -0.413841 2.499668
0.455178 -0.414611 2.504323
0.461470 -0.416009 2.512764
0.467548 -0.417187 2.519882
0.473557 -0.418282 2.526491
0.479933 -0.419674 2.534900
0.486123 -0.420878 2.542173
0.492214 -0.421973 2.548790
0.498336 -0.423074 2.555440
0.504321 -0.424038 2.561261
0.509991 -0.424722 2.565390
0.515652 -0.425385 2.569399
0.516662 -0.422235 2.550370
0.490282 -0.396967 2.397744
0.461505 -0.370238 2.236301
0.457571 -0.363745 2.197083
0.457247 -0.360213 2.175745
0.457946 -0.357542 2.159615
0.459165 -0.355322 2.146203
0.461169 -0.353742 2.136661
0.464119 -0.352909 2.131629
0.467265 -0.352238 2.127578
0.470664 -0.351768 2.124739
0.474713 -0.351787 2.124854
0.478326 -0.351486 2.123037
0.482609 -0.351678 2.124195
0.485963 -0.351196 2.121282
0.489772 -0.351047 2.120382
0.493595 -0.350911 2.119562
0.497605 -0.350909 2.119549
0.501408 -0.350762 2.118661
0.504990 -0.350464 2.116864
0.508780 -0.350314 2.115957
0.512073 -0.349827 2.113011
0.515844 -0.349671 2.112072
0.519609 -0.349514 2.111123
0.523369 -0.349356 2.110168
0.527154 -0.349217 2.109327
0.530918 -0.349066 2.108416
0.535172 -0.349236 2.109447
0.538925 -0.349081 2.108506
0.542699 -0.348941 2.107660
0.546952 -0.349108 2.108671
0.550684 -0.348943 2.107674
0.554425 -0.348786 2.106725
0.558721 -0.348978 2.107885
0.562860 -0.349070 2.108441
0.566696 -0.348974 2.107862
0.570421 -0.348811 2.106878
0.574159 -0.348659 2.105959
0.577867 -0.348491 2.104944
0.581564 -0.348318 2.103898
0.585254 -0.348144 2.102846
0.589531 -0.348318 2.103901
0.593235 -0.348154 2.102911
0.596913 -0.347977 2.101842
0.601170 -0.348138 2.102814
0.605419 -0.348292 2.103742
0.609719 -0.348473 2.104838
0.613950 -0.348613 2.105681
0.617665 -0.348460 2.104754
0.621969 -0.348638 2.105834
0.626238 -0.348796 2.106786
0.629893 -0.348611 2.105667
-0.563060 -0.302190 1.847179
-0.559346 -0.302073 1.846463
-0.555031 -0.301628 1.843745
-0.551292 -0.301492 1.842912
-0.547557 -0.301357 1.842085
-0.543787 -0.301200 1.841130
-0.539979 -0.301021 1.840032
-0.536242 -0.300879 1.839165
-0.532508 -0.300736 1.838293
-0.528775 -0.300593 1.837416
-0.525011 -0.300429 1.836418
-0.520875 -0.300050 1.834098
-0.517585 -0.300156 1.834745
-0.513831 -0.299992 1.833743
-0.510077 -0.299826 1.832729
-0.506478 -0.299750 1.832264
-0.503129 -0.299821 1.832701
-0.499436 -0.299687 1.831881
-0.495821 -0.299599 1.831340
-0.492087 -0.299437 1.830349
-0.488735 -0.299506 1.830773
-0.485145 -0.299430 1.830308
-0.481430 -0.299274 1.829356
-0.477704 -0.299110 1.828352
-0.474323 -0.299161 1.828664
-0.470759 -0.299096 1.828267
-0.467047 -0.298936 1.827290
-0.463639 -0.298969 1.827491
-0.460081 -0.298906 1.827103
-0.456408 -0.298766 1.826249
-0.453115 -0.298874 1.826912
-0.449692 -0.298898 1.827057
-0.446146 -0.298840 1.826699
-0.442709 -0.298855 1.826791
-0.439172 -0.298801 1.826465
-0.435723 -0.298807 1.826503
-0.432196 -0.298759 1.826209
-0.428513 -0.298602 1.825249
-0.425031 -0.298584 1.825138
-0.421533 -0.298554 1.824956
-0.418233 -0.298665 1.825631
-0.414734 -0.298634 1.825444
-0.411247 -0.298612 1.825309
-0.407737 -0.298572 1.825066
-0.404259 -0.298556 1.824965
-0.400960 -0.298672 1.825673
-0.397657 -0.298787 1.826381
-0.394350 -0.298901 1.827077
-0.390810 -0.298840 1.826699
-0.387352 -0.298840 1.826702
-0.384032 -0.298948 1.827363
-0.380718 -0.299063 1.828063
-0.377391 -0.299169 1.828713
-0.374070 -0.299282 1.829401
-0.370736 -0.299386 1.830041
-0.367407 -0.299497 1.830718
-0.364066 -0.299600 1.831347
-0.360729 -0.299709 1.832012
-0.357381 -0.299810 1.832631
-0.354294 -0.300134 1.834612
-0.351026 -0.300309 1.835684
-0.347672 -0.300415 1.836327
-0.344307 -0.300512 1.836925
-0.341210 -0.300848 1.838975
-0.337905 -0.301005 1.839938
-0.334534 -0.301107 1.840558
-0.331477 -0.301495 1.842933
-0.328365 -0.301843 1.845056
-0.325022 -0.301982 1.845909
-0.321946 -0.302375 1.848310
-0.318815 -0.302725 1.850452
-0.315449 -0.302857 1.851259
-0.312341 -0.303242 1.853613
-0.309227 -0.303631 1.855989
-0.306100 -0.304016 1.858338
-0.302953 -0.304389 1.860620
-0.299811 -0.304776 1.862985
-0.296386 -0.304880 1.863623
-0.292938 -0.304964 1.864135
-0.289775 -0.305350 1.866498
-0.286598 -0.305731 1.868824
-0.283416 -0.306116 1.871179
-0.280221 -0.306496 1.873499
-0.276761 -0.306593 1.874091
-0.273571 -0.306994 1.876545
-0.270340 -0.307361 1.878787
-0.267114 -0.307742 1.881115
-0.263859 -0.308100 1.883304
-0.260611 -0.308476 1.885601
-0.257358 -0.308856 1.887926
-0.253875 -0.308968 1.888610
-0.250575 -0.309308 1.890688
-0.247089 -0.309425 1.891406
-0.243808 -0.309806 1.893735
-0.240511 -0.310178 1.896009
-0.237214 -0.310561 1.898350
-0.233903 -0.310938 1.900654
-0.230583 -0.311314 1.902954
-0.227254 -0.311690 1.905251
-0.223916 -0.312065 1.907543
-0.220569 -0.312440 1.909832
-0.217213 -0.312814 1.912117
-0.213998 -0.313408 1.915749
-0.210679 -0.313866 1.918549
-0.207292 -0.314238 1.920825
-0.204032 -0.314820 1.924382
-0.200687 -0.315289 1.927246
-0.197449 -0.315946 1.931267
-0.194033 -0.316338 1.933663
-0.190776 -0.317010 1.937767
-0.187326 -0.317379 1.940024
-0.183871 -0.317757 1.942333
-0.180574 -0.318427 1.946431
-0.177098 -0.318804 1.948733
-0.173778 -0.319483 1.952884
-0.170442 -0.320162 1.957037
-0.167091 -0.320842 1.961192
-0.163724 -0.321522 1.965349
-0.160342 -0.322202 1.969508
-0.156944 -0.322883 1.973669
-0.153530 -0.323564 1.977832
-0.149954 -0.323929 1.980063
-0.146513 -0.324610 1.984225
-0.143056 -0.325291 1.988390
-0.139447 -0.325655 1.990611
-0.135962 -0.326336 1.994775
-0.132382 -0.326823 1.997755
-0.128750 -0.327204 2.000079
-0.125168 -0.327741 2.003362
-0.121554 -0.328224 2.006318
-0.117955 -0.328782 2.009726
-0.114275 -0.329141 2.011922
-0.110589 -0.329507 2.014161
-0.106993 -0.330180 2.018270
-0.103284 -0.330537 2.020453
-0.099663 -0.331217 2.024610
-0.095933 -0.331573 2.026786
-0.092224 -0.332036 2.029620
-0.088534 -0.332607 2.033110
-0.084775 -0.332961 2.035274
-0.081007 -0.333315 2.037434
-0.077231 -0.333667 2.039588
-0.073447 -0.334019 2.041738
-0.069604 -0.334130 2.042415
-0.065854 -0.334720 2.046023
-0.062044 -0.335069 2.048158
-0.058227 -0.335418 2.050288
-0.054402 -0.335765 2.052413
-0.050568 -0.336112 2.054532
-0.046687 -0.336174 2.054909
-0.042840 -0.336514 2.056992
-0.038984 -0.336854 2.059070
-0.035121 -0.337193 2.061142
-0.031252 -0.337553 2.063338
-0.027396 -0.338175 2.067145
-0.023506 -0.338518 2.069237
-0.019627 -0.339187 2.073331
-0.015718 -0.339538 2.075476
-0.011811 -0.340198 2.079506
-0.007882 -0.340536 2.081573
-0.003945 -0.340873 2.083635
0.000000 -0.341515 2.087558
0.003957 -0.341879 2.089782
0.007928 -0.342534 2.093791
0.011905 -0.342882 2.095918
0.015902 -0.343508 2.099739
0.019899 -0.343884 2.102041
0.023922 -0.344501 2.105811
0.027935 -0.344828 2.107813
0.031961 -0.345212 2.110157
0.035987 -0.345501 2.111925
0.040028 -0.345870 2.114179
0.044073 -0.346201 2.116204
0.048161 -0.346791 2.119809
0.052235 -0.347189 2.122241
0.056306 -0.347518 2.124256
0.060384 -0.347843 2.126240
0.064516 -0.348415 2.129736
0.068629 -0.348824 2.132239
0.072734 -0.349152 2.134241
0.076901 -0.349728 2.137762
0.081043 -0.350135 2.140250
0.085256 -0.350797 2.144297
0.089484 -0.351459 2.148343
0.093728 -0.352121 2.152390
0.097957 -0.352674 2.155772
0.102129 -0.352987 2.157683
0.106307 -0.353299 2.159588
0.110493 -0.353609 2.161487
0.114724 -0.354037 2.164100
0.118930 -0.354359 2.166068
0.123139 -0.354670 2.167973
0.127429 -0.355189 2.171140
0.131707 -0.355639 2.173896
0.136017 -0.356148 2.177004
0.140258 -0.356452 2.178865
0.144571 -0.356914 2.181685
0.148911 -0.357418 2.184771
0.153172 -0.357709 2.186547
0.157444 -0.358010 2.188385
0.161803 -0.358486 2.191295
0.166092 -0.358789 2.193150
0.170393 -0.359103 2.195068
0.174775 -0.359567 2.197906
0.179173 -0.360045 2.200825
0.183672 -0.360697 2.204809
0.188186 -0.361348 2.208793
0.192714 -0.361999 2.212769
0.197258 -0.362650 2.216751
0.201817 -0.363302 2.220733
0.206587 -0.364299 2.226832
0.211309 -0.365173 2.232173
0.216000 -0.365961 2.236989
0.220834 -0.366955 2.243066
0.225491 -0.367625 2.247160
0.230303 -0.368517 2.252613
0.235066 -0.369299 2.257392
0.239763 -0.369952 2.261385
0.244475 -0.370605 2.265378
0.249446 -0.371621 2.271586
0.254193 -0.372275 2.275581
0.259208 -0.373292 2.281802
0.264191 -0.374231 2.287538
0.269050 -0.374966 2.292033
0.274134 -0.375987 2.298276
0.279450 -0.377290 2.306237
0.284376 -0.378034 2.310790
0.289533 -0.379058 2.317047
0.294676 -0.380033 2.323007
0.299872 -0.381046 2.329199
0.304862 -0.381774 2.333646
0.310118 -0.382807 2.339962
0.315394 -0.383837 2.346257
0.320987 -0.385218 2.354697
0.326641 -0.386633 2.363351
0.331728 -0.387348 2.367722
0.337111 -0.388385 2.374060
0.342502 -0.389404 2.380287
0.347927 -0.390435 2.386589
0.353734 -0.391862 2.395315
0.359232 -0.392916 2.401754
0.364396 -0.393582 2.405824
0.370293 -0.395013 2.414572
0.375858 -0.396060 2.420975
0.381102 -0.396747 2.425175
0.386718 -0.397802 2.431619
0.392314 -0.398810 2.437785
0.397978 -0.399863 2.444221
0.403304 -0.400557 2.448461
0.408614 -0.401219 2.452511
0.413998 -0.401938 2.456905
0.420164 -0.403393 2.465795
0.425959 -0.404462 2.472330
0.432130 -0.405862 2.480888
0.438072 -0.407019 2.487959
0.443921 -0.408065 2.494355
0.449743 -0.409065 2.500469
0.455663 -0.410133 2.506994
0.461711 -0.411292 2.514080
0.467715 -0.412388 2.520783
0.473702 -0.413449 2.527264
0.480056 -0.414804 2.535548
0.486119 -0.415884 2.542153
0.492204 -0.416962 2.548741
0.497996 -0.417772 2.553692
0.503957 -0.418708 2.559414
0.509277 -0.419099 2.561801
0.513692 -0.418744 2.559629
0.509458 -0.411411 2.514807
0.463819 -0.371087 2.268322
0.454156 -0.360022 2.200688
0.453109 -0.355927 2.175654
0.454134 -0.353518 2.160931
0.455567 -0.351468 2.148399
0.457662 -0.349959 2.139175
0.460179 -0.348798 2.132076
0.462908 -0.347815 2.126069
0.466480 -0.347478 2.124006
0.470117 -0.347193 2.122269
0.474146 -0.347201 2.122316
0.477977 -0.347066 2.121489
0.481792 -0.346920 2.120601
0.485615 -0.346783 2.119762
0.489420 -0.346636 2.118862
0.493234 -0.346497 2.118011
0.497030 -0.346347 2.117098
0.500834 -0.346206 2.116236
0.504620 -0.346055 2.115311
0.508136 -0.345723 2.113279
0.511726 -0.345445 2.111580
0.515486 -0.345285 2.110606
0.519270 -0.345145 2.109748
0.523028 -0.344989 2.108793
0.526810 -0.344851 2.107951
0.530885 -0.344906 2.108284
0.534811 -0.344863 2.108026
0.538563 -0.344710 2.107091
0.542683 -0.344793 2.107599
0.546585 -0.344737 2.107255
0.550314 -0.344574 2.106259
0.554047 -0.344416 2.105292
0.558306 -0.344584 2.106322
0.562459 -0.344685 2.106938
0.566287 -0.344587 2.106339
0.570035 -0.344442 2.105453
0.573768 -0.344290 2.104524
0.577473 -0.344124 2.103508
0.581167 -0.343953 2.102462
0.585420 -0.344114 2.103443
0.589144 -0.343963 2.102520
0.592830 -0.343791 2.101474
0.597083 -0.343950 2.102442
0.600761 -0.343776 2.101382
0.605054 -0.343955 2.102476
0.609315 -0.344114 2.103443
0.613545 -0.344252 2.104292
0.617242 -0.344092 2.103314
0.621542 -0.344268 2.104389
0.625767 -0.344401 2.105199
0.629460 -0.344241 2.104222
-0.563260 -0.298670 1.847835
-0.559506 -0.298534 1.846994
-0.555176 -0.298086 1.844224
-0.550914 -0.297670 1.841649
-0.547686 -0.297811 1.842521
-0.543444 -0.297399 1.839969
-0.539678 -0.297243 1.839007
-0.535949 -0.297106 1.838159
-0.532222 -0.296968 1.837306
-0.528443 -0.296800 1.836264
-0.524681 -0.296638 1.835266
-0.521018 -0.296531 1.834603
-0.517308 -0.296395 1.833761
-0.513591 -0.296254 1.832886
-0.510208 -0.296305 1.833200
-0.506615 -0.296233 1.832760
-0.502911 -0.296096 1.831908
-0.499581 -0.296178 1.832416
-0.495966 -0.296090 1.831875
-0.492596 -0.296150 1.832243
-0.488878 -0.295999 1.831309
-0.485288 -0.295924 1.830845
-0.481571 -0.295770 1.829893
-0.478190 -0.295822 1.830215
-0.474478 -0.295668 1.829262
-0.470897 -0.295594 1.828805
-0.467508 -0.295641 1.829093
-0.463919 -0.295560 1.828595
-0.460508 -0.295593 1.828797
-0.456958 -0.295537 1.828449
-0.453543 -0.295567 1.828637
-0.449985 -0.295504 1.828247
-0.446557 -0.295526 1.828386
-0.443008 -0.295468 1.828023
-0.439568 -0.295482 1.828113
-0.436027 -0.295428 1.827777
-0.432324 -0.295262 1.826752
-0.428870 -0.295266 1.826772
-0.425342 -0.295217 1.826474
-0.422056 -0.295338 1.827220
-0.418380 -0.295185 1.826274
-0.415067 -0.295288 1.826908
-0.411391 -0.295132 1.825948
-0.408074 -0.295234 1.826575
-0.404380 -0.295062 1.825510
-0.401080 -0.295176 1.826219
-0.397776 -0.295291 1.826928
-0.394468 -0.295403 1.827624
-0.391157 -0.295516 1.828324
-0.387484 -0.295355 1.827327
-0.384147 -0.295450 1.827912
-0.380832 -0.295563 1.828612
-0.377505 -0.295668 1.829263
-0.374182 -0.295779 1.829952
-0.370847 -0.295883 1.830592
-0.367517 -0.295992 1.831270
-0.364175 -0.296094 1.831900
-0.360838 -0.296202 1.832565
-0.357489 -0.296302 1.833184
-0.354401 -0.296622 1.835166
-0.351132 -0.296796 1.836240
-0.347777 -0.296900 1.836883
-0.344412 -0.296996 1.837481
-0.341313 -0.297328 1.839532
-0.338008 -0.297484 1.840496
-0.334636 -0.297584 1.841117
-0.331577 -0.297968 1.843493
-0.328435 -0.298284 1.845447
-0.325121 -0.298449 1.846470
-0.322039 -0.298833 1.848846
-0.318882 -0.299155 1.850838
-0.315545 -0.299315 1.851823
-0.312406 -0.299667 1.854002
-0.309298 -0.300056 1.856413
-0.306174 -0.300440 1.858784
-0.303046 -0.300828 1.861188
-0.299624 -0.300930 1.861820
-0.296476 -0.301314 1.864192
-0.293027 -0.301397 1.864705
-0.289864 -0.301779 1.867069
-0.286687 -0.302156 1.869402
-0.283503 -0.302536 1.871753
-0.280307 -0.302911 1.874073
-0.276875 -0.303038 1.874862
-0.273862 -0.303633 1.878543
-0.270423 -0.303766 1.879364
-0.267196 -0.304143 1.881693
-0.263940 -0.304496 1.883882
-0.260691 -0.304868 1.886181
-0.257437 -0.305244 1.888507
-0.253953 -0.305354 1.889191
-0.250652 -0.305691 1.891270
-0.247165 -0.305807 1.891989
-0.243883 -0.306183 1.894319
-0.240551 -0.306507 1.896323
-0.237243 -0.306872 1.898583
-0.233929 -0.307241 1.900864
-0.230606 -0.307609 1.903141
-0.227274 -0.307977 1.905415
-0.223939 -0.308352 1.907734
-0.220583 -0.308710 1.909950
-0.217280 -0.309156 1.912709
-0.213914 -0.309525 1.914991
-0.210721 -0.310162 1.918934
-0.207356 -0.310564 1.921420
-0.204080 -0.311116 1.924835
-0.200685 -0.311502 1.927226
-0.197331 -0.311968 1.930111
-0.194086 -0.312627 1.934188
-0.190654 -0.313005 1.936524
-0.187319 -0.313560 1.939959
-0.183920 -0.314028 1.942853
-0.180552 -0.314568 1.946195
-0.177153 -0.315076 1.949338
-0.173813 -0.315713 1.953278
-0.170476 -0.316384 1.957431
-0.167059 -0.316932 1.960817
-0.163681 -0.317581 1.964836
-0.160235 -0.318125 1.968198
-0.156839 -0.318797 1.972357
-0.153428 -0.319469 1.976517
-0.149992 -0.320124 1.980568
-0.146415 -0.320502 1.982906
-0.142960 -0.321175 1.987068
-0.139490 -0.321848 1.991232
-0.135929 -0.322343 1.994295
-0.132373 -0.322879 1.997613
-0.128859 -0.323552 2.001777
-0.125212 -0.323923 2.004074
-0.121665 -0.324582 2.008152
-0.117992 -0.324938 2.010353
-0.114351 -0.325407 2.013256
-0.110729 -0.325966 2.016710
-0.107031 -0.326332 2.018974
-0.103356 -0.326800 2.021870
-0.099694 -0.327345 2.025242
-0.095966 -0.327707 2.027485
-0.092313 -0.328368 2.031575
-0.088564 -0.328729 2.033805
-0.084822 -0.329152 2.036426
-0.081032 -0.329418 2.038071
-0.077255 -0.329767 2.040226
-0.073472 -0.330122 2.042426
-0.069676 -0.330461 2.044522
-0.065874 -0.330807 2.046663
-0.062075 -0.331212 2.049167
-0.058255 -0.331552 2.051273
-0.054427 -0.331892 2.053374
-0.050590 -0.332225 2.055437
-0.046741 -0.332525 2.057291
-0.042853 -0.332581 2.057636
-0.038997 -0.332917 2.059715
-0.035163 -0.333546 2.063607
-0.031290 -0.333909 2.065853
-0.027407 -0.334246 2.067937
-0.023515 -0.334578 2.069996
-0.019633 -0.335222 2.073980
-0.015723 -0.335569 2.076126
-0.011815 -0.336221 2.080157
-0.007885 -0.336555 2.082225
-0.003946 -0.336888 2.084287
0.000000 -0.337221 2.086344
0.003958 -0.337881 2.090430
0.007923 -0.338213 2.092484
0.011906 -0.338822 2.096248
0.015893 -0.339204 2.098613
0.019903 -0.339827 2.102470
0.023909 -0.340193 2.104730
0.027921 -0.340520 2.106755
0.031968 -0.341141 2.110596
0.035998 -0.341462 2.112586
0.040035 -0.341783 2.114571
