ply
format ascii 1.0
comment generated by convert_depth_to_ply.py
element vertex 1678
property float x
property float y
property float z
end_header
-0.905426 -1.135720 6.588919
-0.896774 -1.134258 6.580439
-0.886943 -1.131267 6.563087
-0.879089 -1.130770 6.560203
-0.875269 -1.135496 6.587619
-0.870323 -1.138832 6.606974
-0.863881 -1.140250 6.615197
-0.855638 -1.139296 6.609664
-0.848040 -1.139190 6.609052
-0.839847 -1.138277 6.603755
-0.831801 -1.137548 6.599523
-0.823688 -1.136714 6.594686
-0.816205 -1.136742 6.594848
-0.808781 -1.136852 6.595486
-0.800598 -1.135889 6.589900
-0.792128 -1.134496 6.581815
-0.783512 -1.132865 6.572352
-0.775104 -1.131506 6.564468
-0.766980 -1.130540 6.558867
-0.758398 -1.128873 6.549196
-0.750344 -1.127966 6.543931
-0.742957 -1.128054 6.544445
-0.735526 -1.128077 6.544575
-0.728881 -1.129317 6.551770
-0.721757 -1.129834 6.554772
-0.715049 -1.131020 6.561649
-0.708154 -1.131931 6.566936
-0.701662 -1.133513 6.576115
-0.694729 -1.134409 6.581312
-0.687359 -1.134603 6.582436
-0.679911 -1.134670 6.582826
-0.672277 -1.134426 6.581413
-0.664490 -1.133916 6.578450
-0.657018 -1.133936 6.578570
-0.649383 -1.133673 6.577045
-0.641562 -1.133076 6.573578
-0.634109 -1.133123 6.573850
-0.626418 -1.132739 6.571625
-0.619269 -1.133338 6.575097
-0.611901 -1.133547 6.576313
-0.604480 -1.133662 6.576976
-0.597058 -1.133777 6.577645
-0.589860 -1.134325 6.580824
-0.582687 -1.134936 6.584369
-0.575293 -1.135128 6.585485
-0.567897 -1.135321 6.586602
-0.560921 -1.136369 6.592682
-0.553471 -1.136473 6.593286
-0.546020 -1.136576 6.593883
-0.538080 -1.135653 6.588530
-0.530113 -1.134643 6.582672
-0.522200 -1.133722 6.577328
-0.514762 -1.133822 6.577907
-0.507053 -1.133319 6.574988
-0.498903 -1.131799 6.566171
-0.491740 -1.132508 6.570281
-0.485254 -1.134821 6.583703
-0.478514 -1.136603 6.594039
-0.471080 -1.136765 6.594983
-0.463612 -1.136852 6.595488
-0.456104 -1.136841 6.595420
-0.448606 -1.136856 6.595508
-0.441134 -1.136939 6.595988
-0.433920 -1.137699 6.600402
-0.426861 -1.138900 6.607366
-0.419530 -1.139405 6.610299
-0.411697 -1.138542 6.605292
-0.403564 -1.136801 6.595187
-0.395312 -1.134650 6.582711
-0.387655 -1.134160 6.579867
-0.380400 -1.134848 6.583861
-0.373299 -1.136035 6.590743
-0.365925 -1.136421 6.592984
-0.358700 -1.137295 6.598058
-0.351109 -1.137021 6.596468
-0.343534 -1.136790 6.595125
-0.336279 -1.137630 6.599997
-0.328920 -1.138147 6.603000
-0.321629 -1.138929 6.607534
-0.314202 -1.139260 6.609455
-0.306745 -1.139489 6.610785
-0.299420 -1.140236 6.615117
-0.292005 -1.140670 6.617635
-0.284768 -1.141840 6.624426
-0.277223 -1.141808 6.624236
-0.269479 -1.140929 6.619140
-0.261457 -1.138786 6.606704
-0.253731 -1.137847 6.601257
-0.246388 -1.138621 6.605748
-0.238910 -1.138800 6.606788
-0.231602 -1.139824 6.612725
-0.224120 -1.140036 6.613958
-0.216603 -1.140077 6.614196
-0.209060 -1.139978 6.613622
-0.201400 -1.139211 6.609170
-0.193859 -1.139079 6.608405
-0.186346 -1.139114 6.608611
-0.178810 -1.139005 6.607975
-0.171293 -1.139010 6.608007
-0.163644 -1.138100 6.602724
-0.156248 -1.138941 6.607604
-0.148751 -1.139099 6.608521
-0.141353 -1.140069 6.614146
-0.133831 -1.140094 6.614291
-0.126216 -1.139280 6.609569
-0.118687 -1.139197 6.609093
-0.111170 -1.139218 6.609213
-0.103575 -1.138381 6.604356
-0.096041 -1.138144 6.602980
-0.088543 -1.138331 6.604063
-0.081031 -1.138346 6.604151
-0.073589 -1.139461 6.610621
-0.066134 -1.140588 6.617158
-0.058607 -1.140608 6.617277
-0.051119 -1.141521 6.622572
-0.043593 -1.141734 6.623807
-0.036057 -1.141747 6.623881
-0.028521 -1.141752 6.623910
-0.020982 -1.141587 6.622957
-0.013447 -1.141587 6.622954
-0.005907 -1.140475 6.616504
0.001621 -1.140473 6.616490
0.009141 -1.139526 6.610996
0.016659 -1.139336 6.609897
0.024156 -1.138237 6.603518
0.031642 -1.137284 6.597990
0.039142 -1.137068 6.596737
0.046600 -1.135941 6.590199
0.054047 -1.134872 6.584001
0.061528 -1.134691 6.582947
0.069013 -1.134615 6.582506
0.076442 -1.133724 6.577339
0.083923 -1.133707 6.577242
0.091406 -1.133704 6.577224
0.098901 -1.133840 6.578010
0.106391 -1.133913 6.578437
0.113987 -1.135024 6.584879
0.121596 -1.136116 6.591218
0.129343 -1.138299 6.603883
0.137089 -1.140235 6.615114
0.144630 -1.140356 6.615814
0.152150 -1.140302 6.615502
0.159632 -1.139985 6.613662
0.167012 -1.139006 6.607983
0.174692 -1.140058 6.614088
0.182263 -1.140353 6.615798
0.189971 -1.141437 6.622084
0.197638 -1.142209 6.626562
0.205195 -1.142308 6.627139
0.212727 -1.142267 6.626902
0.220252 -1.142190 6.626456
0.227708 -1.141776 6.624050
0.235053 -1.140850 6.618678
0.242337 -1.139690 6.611948
0.249604 -1.138528 6.605211
0.257108 -1.138479 6.604923
0.264392 -1.137487 6.599169
0.271857 -1.137308 6.598128
0.279381 -1.137380 6.598551
0.287112 -1.138266 6.603690
0.294654 -1.138380 6.604350
0.302403 -1.139263 6.609473
0.309906 -1.139204 6.609129
0.317408 -1.139143 6.608775
0.324641 -1.138139 6.602951
0.332134 -1.138074 6.602576
0.339575 -1.137839 6.601210
0.347065 -1.137773 6.600826
0.354554 -1.137704 6.600426
0.362059 -1.137691 6.600353
0.369563 -1.137676 6.600265
0.377011 -1.137492 6.599195
0.384156 -1.136417 6.592959
0.391593 -1.136231 6.591884
0.399066 -1.136155 6.591443
0.406536 -1.136076 6.590986
0.414007 -1.135998 6.590532
0.421475 -1.135917 6.590063
0.428966 -1.135900 6.589965
0.436832 -1.136861 6.595535
0.444914 -1.138340 6.604116
0.452837 -1.139371 6.610099
0.460585 -1.139935 6.613372
0.468073 -1.139846 6.612853
0.475527 -1.139679 6.611886
0.482571 -1.138551 6.605342
0.490045 -1.138455 6.604788
0.497518 -1.138361 6.604240
0.505441 -1.139286 6.609604
0.513156 -1.139719 6.612121
0.520940 -1.140291 6.615439
0.528631 -1.140647 6.617500
0.536379 -1.141113 6.620208
0.543904 -1.141097 6.620114
0.551611 -1.141461 6.622227
0.558862 -1.140884 6.618876
0.566808 -1.141720 6.623729
0.574040 -1.141117 6.620229
0.581287 -1.140557 6.616982
0.588757 -1.140446 6.616335
0.596224 -1.140330 6.615662
0.603965 -1.140735 6.618014
0.612034 -1.141741 6.623847
0.619823 -1.142208 6.626560
0.627870 -1.143132 6.631918
0.635389 -1.143085 6.631648
0.642236 -1.141845 6.624451
0.649702 -1.141721 6.623734
0.657167 -1.141598 6.623017
0.665276 -1.142584 6.628739
0.672745 -1.142460 6.628022
0.680770 -1.143274 6.632740
0.688302 -1.143250 6.632601
0.695807 -1.143183 6.632215
0.703850 -1.143993 6.636912
0.711317 -1.143857 6.636127
0.718853 -1.143834 6.635994
0.726748 -1.144378 6.639147
0.734491 -1.144674 6.640863
0.742407 -1.145230 6.644093
0.750185 -1.145565 6.646035
0.758278 -1.146369 6.650697
0.765828 -1.146345 6.650559
0.773861 -1.147035 6.654565
0.781560 -1.147224 6.655662
0.789798 -1.148193 6.661278
0.797271 -1.148041 6.660398
0.805317 -1.148709 6.664272
0.813003 -1.148856 6.665126
0.820475 -1.148700 6.664219
0.827428 -1.147828 6.659165
0.834595 -1.147266 6.655902
0.842052 -1.147108 6.654986
0.849499 -1.146940 6.654009
0.856952 -1.146783 6.653100
0.865089 -1.147536 6.657469
0.872687 -1.147569 6.657658
0.880824 -1.148301 6.661908
0.889149 -1.149265 6.667500
0.896767 -1.149307 6.667744
0.904223 -1.149142 6.666786
0.911674 -1.148973 6.665803
0.920021 -1.149928 6.671344
0.928369 -1.150866 6.676791
0.937514 -1.152771 6.687840
0.945122 -1.152771 6.687839
0.951776 -1.151616 6.681137
0.958182 -1.150181 6.672814
0.964662 -1.148857 6.665133
0.971278 -1.147714 6.658500
0.979511 -1.148485 6.662977
0.987812 -1.149324 6.667840
0.996204 -1.150254 6.673239
1.004623 -1.151202 6.678738
1.013053 -1.152148 6.684224
1.020703 -1.152199 6.684521
1.028992 -1.152966 6.688969
1.036432 -1.152776 6.687871
1.043852 -1.152567 6.686659
1.050416 -1.151424 6.680027
1.057681 -1.151059 6.677910
1.065081 -1.150846 6.676673
1.072651 -1.150819 6.676514
1.080962 -1.151580 6.680931
1.089420 -1.152487 6.686192
1.096838 -1.152289 6.685042
1.106406 -1.154336 6.696917
-1.079893 -1.107156 6.466558
-1.072914 -1.107546 6.468837
-1.065756 -1.107755 6.470058
-1.060462 -1.109919 6.482694
-1.054310 -1.111209 6.490227
-1.047273 -1.111577 6.492376
-1.039893 -1.111583 6.492415
-1.032697 -1.111788 6.493610
-1.025536 -1.112034 6.495048
-1.020094 -1.114161 6.507472
-1.013863 -1.115452 6.515009
-1.007600 -1.116725 6.522447
-1.000558 -1.117147 6.524914
-0.994050 -1.118177 6.530927
-0.987742 -1.119448 6.538353
-0.980700 -1.119902 6.541005
-0.974210 -1.120997 6.547399
-0.967783 -1.122182 6.554319
-0.960378 -1.122243 6.554676
-0.952131 -1.121313 6.549243
-0.943910 -1.120398 6.543901
-0.935950 -1.119783 6.540306
-0.928786 -1.120116 6.542254
-0.922399 -1.121400 6.549752
-0.916607 -1.123435 6.561636
-0.910164 -1.124698 6.569014
-0.902954 -1.125026 6.570930
-0.894410 -1.123684 6.563093
-0.884463 -1.120542 6.544739
-0.875913 -1.119130 6.536496
-0.871365 -1.122853 6.558239
-0.868856 -1.129290 6.595835
-0.863194 -1.131705 6.609939
-0.856333 -1.132576 6.615029
-0.848387 -1.132016 6.611759
-0.840167 -1.131076 6.606267
-0.832563 -1.130957 6.605574
-0.824346 -1.129995 6.599953
-0.816354 -1.129326 6.596046
-0.808135 -1.128329 6.590223
-0.799781 -1.127121 6.583169
-0.791026 -1.125322 6.572657
-0.782613 -1.123978 6.564808
-0.774481 -1.123017 6.559197
-0.766364 -1.122059 6.553601
-0.758258 -1.121097 6.547983
-0.750166 -1.120138 6.542381
-0.742403 -1.119656 6.539563
-0.734933 -1.119610 6.539298
-0.727582 -1.119747 6.540097
-0.720270 -1.119947 6.541265
-0.713569 -1.121111 6.548063
-0.706819 -1.122222 6.554555
-0.700202 -1.123570 6.562425
-0.693492 -1.124796 6.569587
-0.686767 -1.126024 6.576760
-0.679363 -1.126154 6.577520
-0.671405 -1.125359 6.572875
-0.663959 -1.125414 6.573196
-0.656488 -1.125426 6.573268
-0.648863 -1.125171 6.571777
-0.640827 -1.124189 6.566044
-0.633020 -1.123593 6.562558
-0.625619 -1.123710 6.563243
-0.618218 -1.123829 6.563937
-0.610812 -1.123943 6.564602
-0.603404 -1.124056 6.565262
-0.596039 -1.124254 6.566419
-0.588678 -1.124462 6.567634
-0.581262 -1.124571 6.568270
-0.573846 -1.124681 6.568914
-0.566886 -1.125701 6.574872
-0.559459 -1.125809 6.575500
-0.552029 -1.125912 6.576103
-0.544284 -1.125367 6.572922
-0.536639 -1.125018 6.570882
-0.528941 -1.124545 6.568122
-0.521270 -1.124116 6.565617
-0.513845 -1.124215 6.566194
-0.505961 -1.123296 6.560826
-0.498279 -1.122805 6.557956
-0.490900 -1.122993 6.559055
-0.484390 -1.125206 6.571980
-0.477887 -1.127502 6.585394
-0.470630 -1.128066 6.588687
-0.463244 -1.128335 6.590259
-0.455708 -1.128241 6.589705
-0.448245 -1.128325 6.590199
-0.440420 -1.127488 6.585310
-0.433313 -1.128491 6.591166
-0.426101 -1.129250 6.595603
-0.418825 -1.129865 6.599196
-0.411371 -1.130013 6.600057
-0.403615 -1.129320 6.596010
-0.395361 -1.127185 6.583540
-0.387365 -1.125713 6.574943
-0.379887 -1.125721 6.574987
-0.372430 -1.125791 6.575399
-0.364972 -1.125861 6.575807
-0.357767 -1.126732 6.580894
-0.350393 -1.127094 6.583007
-0.342961 -1.127285 6.584122
-0.335735 -1.128174 6.589315
-0.328658 -1.129617 6.597744
-0.321185 -1.129731 6.598413
-0.313950 -1.130711 6.604136
-0.306502 -1.130953 6.605546
-0.299180 -1.131684 6.609817
-0.291772 -1.132121 6.612371
-0.284507 -1.133146 6.618359
-0.276786 -1.132366 6.613800
-0.268747 -1.130200 6.601147
-0.260942 -1.128923 6.593689
-0.253441 -1.128928 6.593722
-0.246146 -1.129875 6.599251
-0.238729 -1.130305 6.601765
-0.231445 -1.131416 6.608253
-0.223943 -1.131496 6.608719
-0.216432 -1.131536 6.608956
-0.208893 -1.131427 6.608317
-0.201375 -1.131431 6.608339
-0.193863 -1.131468 6.608553
-0.186224 -1.130734 6.604267
-0.178691 -1.130615 6.603572
-0.171183 -1.130647 6.603760
-0.163652 -1.130521 6.603027
-0.156013 -1.129603 6.597666
-0.148510 -1.129631 6.597828
-0.140985 -1.129475 6.596917
-0.133482 -1.129500 6.597062
-0.125979 -1.129524 6.597201
-0.118476 -1.129546 6.597331
-0.110972 -1.129567 6.597452
-0.103468 -1.129586 6.597564
-0.095964 -1.129604 6.597670
-0.088472 -1.129789 6.598751
-0.081033 -1.130739 6.604300
-0.073532 -1.130936 6.605447
-0.066081 -1.132043 6.611913
-0.058606 -1.132941 6.617160
-0.051080 -1.132996 6.617481
-0.043551 -1.133004 6.617527
-0.036029 -1.133194 6.618635
-0.028494 -1.133016 6.617595
-0.020965 -1.133019 6.617616
-0.013413 -1.131001 6.605829
-0.005896 -1.130811 6.604721
0.001618 -1.130811 6.604717
0.009132 -1.130809 6.604704
0.016633 -1.129884 6.599304
0.024141 -1.129879 6.599274
0.031618 -1.128770 6.592796
0.039079 -1.127653 6.586274
0.046527 -1.126542 6.579783
0.053951 -1.125258 6.572285
0.061378 -1.124329 6.566861
0.068904 -1.125232 6.572136
0.076380 -1.125218 6.572049
0.083856 -1.125201 6.571953
0.091333 -1.125199 6.571942
0.098830 -1.125432 6.573303
0.106387 -1.126261 6.578145
0.113980 -1.127341 6.584450
0.121616 -1.128687 6.592311
0.129243 -1.129793 6.598773
0.136979 -1.131682 6.609804
0.144515 -1.131813 6.610573
0.152029 -1.131758 6.610250
0.159389 -1.130622 6.603612
0.166874 -1.130434 6.602514
0.174385 -1.130429 6.602490
0.182069 -1.131500 6.608746
0.189767 -1.132571 6.614995
0.197474 -1.133607 6.621050
0.204999 -1.133567 6.620818
0.212524 -1.133527 6.620582
0.220012 -1.133297 6.619241
0.227378 -1.132479 6.614461
0.234635 -1.131184 6.606899
0.241936 -1.130176 6.601009
0.249357 -1.129774 6.598659
0.256650 -1.128833 6.593168
0.264140 -1.128783 6.592875
0.271628 -1.128732 6.592573
0.279127 -1.128724 6.592531
0.286881 -1.129725 6.598377
0.294421 -1.129852 6.599117
0.302159 -1.130715 6.604155
0.309657 -1.130656 6.603812
0.317153 -1.130595 6.603457
0.324648 -1.130533 6.603097
0.332059 -1.130188 6.601080
0.339357 -1.129483 6.596964
0.346842 -1.129418 6.596581
0.354268 -1.129167 6.595115
0.361750 -1.129098 6.594714
0.369229 -1.129028 6.594302
0.376380 -1.127973 6.588144
0.383810 -1.127780 6.587016
0.390959 -1.126787 6.581214
0.398420 -1.126711 6.580773
0.405813 -1.126451 6.579253
0.413269 -1.126373 6.578799
0.420724 -1.126293 6.578331
0.428342 -1.126644 6.580379
0.436225 -1.127670 6.586372
0.444122 -1.128695 6.592359
0.452031 -1.129717 6.598330
0.459765 -1.130277 6.601598
0.467207 -1.130110 6.600623
0.474247 -1.128993 6.594099
0.481634 -1.128722 6.592516
0.489093 -1.128627 6.591963
0.496588 -1.128617 6.591902
0.504089 -1.128621 6.591925
0.512044 -1.129624 6.597785
0.519545 -1.129613 6.597722
0.527479 -1.130530 6.603078
0.534943 -1.130426 6.602473
0.542405 -1.130324 6.601875
0.549866 -1.130221 6.601270
0.557323 -1.130113 6.600640
0.565017 -1.130483 6.602800
0.572748 -1.130916 6.605329
0.580252 -1.130893 6.605197
0.587709 -1.130783 6.604552
0.595162 -1.130668 6.603880
0.602669 -1.130655 6.603805
0.610662 -1.131544 6.608999
0.618719 -1.132530 6.614758
0.626180 -1.132412 6.614068
0.633899 -1.132759 6.616098
0.641092 -1.132169 6.612651
0.648545 -1.132047 6.611936
0.656060 -1.132034 6.611860
0.664091 -1.132902 6.616931
0.671655 -1.132962 6.617284
0.679448 -1.133404 6.619861
0.687044 -1.133510 6.620485
0.694526 -1.133429 6.620007
0.702016 -1.133361 6.619610
0.709463 -1.133226 6.618826
0.716984 -1.133213 6.618748
0.725057 -1.134061 6.623699
0.732980 -1.134662 6.627208
0.740671 -1.134893 6.628558
0.748615 -1.135504 6.632126
0.756301 -1.135714 6.633358
0.764185 -1.136216 6.636288
0.771953 -1.136536 6.638158
0.780168 -1.137502 6.643801
0.788172 -1.138146 6.647559
0.795851 -1.138312 6.648529
0.803310 -1.138163 6.647662
0.811554 -1.139120 6.653248
0.819012 -1.138965 6.652343
0.826466 -1.138806 6.651417
0.833243 -1.137727 6.645114
0.840551 -1.137387 6.643125
0.847984 -1.137220 6.642149
0.855424 -1.137064 6.641243
0.863701 -1.138015 6.646793
0.871132 -1.137843 6.645790
0.879254 -1.138569 6.650033
0.886983 -1.138779 6.651257
0.895169 -1.139567 6.655857
0.902611 -1.139403 6.654902
0.910170 -1.139387 6.654807
0.918381 -1.140182 6.659450
0.926714 -1.141113 6.664887
0.935842 -1.143001 6.675915
0.943437 -1.143001 6.675914
0.950079 -1.141855 6.669223
0.956560 -1.140535 6.661513
0.963098 -1.139304 6.654325
0.970505 -1.139112 6.653202
0.978860 -1.140027 6.658546
0.987244 -1.140962 6.664006
0.995627 -1.141880 6.669371
1.004036 -1.142816 6.674836
1.012236 -1.143500 6.678829
1.020655 -1.144421 6.684208
1.028160 -1.144310 6.683561
1.035594 -1.144122 6.682465
1.043008 -1.143915 6.681253
1.049419 -1.142619 6.673685
1.056826 -1.142418 6.672511
1.063353 -1.141276 6.665841
1.071629 -1.142013 6.670148
1.080065 -1.142911 6.675389
1.088522 -1.143817 6.680682
1.095951 -1.143637 6.679634
1.105506 -1.145664 6.691471
-1.079229 -1.099007 6.462579
-1.072081 -1.099216 6.463811
-1.064927 -1.099422 6.465024
-1.059620 -1.101552 6.477549
-1.052657 -1.101977 6.480046
-1.046276 -1.103023 6.486197
-1.039036 -1.103170 6.487063
-1.031053 -1.102526 6.483274
-1.023893 -1.102759 6.484646
-1.017505 -1.103832 6.490955
-1.011238 -1.105054 6.498138
-1.004815 -1.106122 6.504418
-0.997576 -1.106300 6.505465
-0.990577 -1.106749 6.508109
-0.984062 -1.107751 6.513999
-0.977058 -1.108213 6.516713
-0.970494 -1.109183 6.522421
-0.963237 -1.109372 6.523533
-0.956899 -1.110629 6.530925
-0.949514 -1.110682 6.531236
-0.941583 -1.110093 6.527768
-0.934299 -1.110262 6.528766
-0.927010 -1.110428 6.529742
-0.920629 -1.111693 6.537182
-0.914220 -1.112946 6.544549
-0.907662 -1.114036 6.550957
-0.901204 -1.115267 6.558197
-0.892995 -1.114333 6.552704
-0.883223 -1.111417 6.535559
-0.874347 -1.109590 6.524813
-0.867943 -1.110894 6.532481
-0.864072 -1.115491 6.559514
-0.861451 -1.121797 6.596592
-0.855816 -1.124253 6.611036
-0.848250 -1.124194 6.610693
-0.840189 -1.123471 6.606440
-0.832118 -1.122723 6.602042
-0.824404 -1.122447 6.600419
-0.816309 -1.121643 6.595686
-0.808121 -1.120693 6.590106
-0.799727 -1.119438 6.582724
-0.790231 -1.116603 6.566051
-0.781513 -1.114823 6.555584
-0.773302 -1.113738 6.549207
-0.765763 -1.113612 6.548462
-0.757663 -1.112657 6.542850
-0.749857 -1.112119 6.539687
-0.742231 -1.111840 6.538046
-0.734440 -1.111307 6.534910
-0.727009 -1.111313 6.534946
-0.719663 -1.111450 6.535751
-0.712635 -1.112087 6.539494
-0.705691 -1.112868 6.544089
-0.699216 -1.114415 6.553185
-0.692314 -1.115307 6.558430
-0.685556 -1.116453 6.565167
-0.678165 -1.116582 6.565927
-0.670768 -1.116703 6.566639
-0.663372 -1.116829 6.567382
-0.655972 -1.116950 6.568094
-0.648355 -1.116703 6.566638
-0.640325 -1.115729 6.560910
-0.632522 -1.115131 6.557394
-0.624625 -1.114352 6.552817
-0.617453 -1.114863 6.555818
-0.610331 -1.115478 6.559436
-0.602929 -1.115590 6.560097
-0.595630 -1.115898 6.561906
-0.588222 -1.116007 6.562548
-0.580812 -1.116115 6.563184
-0.573353 -1.116132 6.563280
-0.565887 -1.116133 6.563288
-0.558473 -1.116240 6.563915
-0.551056 -1.116342 6.564517
-0.543416 -1.115989 6.562443
-0.535739 -1.115550 6.559861
-0.528278 -1.115554 6.559885
-0.520442 -1.114756 6.555191
-0.512940 -1.114660 6.554627
-0.505526 -1.114754 6.555181
-0.497709 -1.113952 6.550465
-0.490517 -1.114542 6.553934
-0.483537 -1.115642 6.560404
-0.476998 -1.117809 6.573145
-0.469848 -1.118591 6.577740
-0.462805 -1.119657 6.584013
-0.455350 -1.119744 6.584525
-0.447678 -1.119293 6.581871
-0.440079 -1.119011 6.580214
-0.432625 -1.119094 6.580701
-0.425510 -1.120073 6.586454
-0.418327 -1.120905 6.591350
-0.410981 -1.121322 6.593803
-0.403300 -1.120825 6.590878
-0.395078 -1.118775 6.578827
-0.387215 -1.117681 6.572394
-0.379611 -1.117311 6.570213
-0.372137 -1.117314 6.570232
-0.364685 -1.117383 6.570640
-0.357293 -1.117644 6.572174
-0.350117 -1.118607 6.577835
-0.342713 -1.118866 6.579358
-0.335557 -1.119964 6.585814
-0.328363 -1.120983 6.591809
-0.321120 -1.121879 6.597077
-0.313758 -1.122392 6.600095
-0.306265 -1.122450 6.600438
-0.299048 -1.123551 6.606906
-0.291732 -1.124324 6.611456
-0.284283 -1.124614 6.613159
-0.276299 -1.122742 6.602154
-0.268309 -1.120742 6.590393
-0.260772 -1.120575 6.589406
-0.253286 -1.120623 6.589689
-0.246039 -1.121764 6.596398
-0.238768 -1.122863 6.602860
-0.231274 -1.122948 6.603364
-0.223949 -1.123892 6.608912
-0.216438 -1.123932 6.609149
-0.208759 -1.123069 6.604077
-0.201217 -1.122912 6.603149
-0.193739 -1.123110 6.604313
-0.186204 -1.122983 6.603569
-0.178696 -1.123016 6.603765
-0.171188 -1.123048 6.603954
-0.163567 -1.122309 6.599603
-0.156021 -1.122039 6.598017
-0.148396 -1.121139 6.592727
-0.140898 -1.121166 6.592883
-0.133377 -1.120996 6.591882
-0.125880 -1.121019 6.592020
-0.118298 -1.120235 6.587412
-0.110885 -1.121062 6.592271
-0.103304 -1.120181 6.587094
-0.095882 -1.121023 6.592046
-0.088404 -1.121295 6.593644
-0.080965 -1.122162 6.598744
-0.073530 -1.123279 6.605307
-0.066019 -1.123348 6.605712
-0.058505 -1.123358 6.605776
-0.050990 -1.123368 6.605831
-0.043475 -1.123375 6.605876
-0.035959 -1.123382 6.605916
-0.028471 -1.124460 6.612256
-0.020932 -1.123586 6.607114
-0.013402 -1.122499 6.600723
-0.005893 -1.122492 6.600682
0.001617 -1.122491 6.600678
0.009127 -1.122489 6.600667
0.016636 -1.122486 6.600645
0.024146 -1.122481 6.600616
0.031654 -1.122445 6.600408
0.039124 -1.121328 6.593837
0.046534 -1.119123 6.580873
0.053918 -1.116969 6.568206
0.061330 -1.115877 6.561785
0.068798 -1.115924 6.562057
0.076320 -1.116745 6.566889
0.083790 -1.116729 6.566792
0.091261 -1.116728 6.566788
0.098746 -1.116886 6.567719
0.106301 -1.117763 6.572873
0.113888 -1.118833 6.579165
0.121489 -1.119903 6.585456
0.129120 -1.121105 6.592525
0.136752 -1.122181 6.598855
0.144379 -1.123110 6.604314
0.151888 -1.123080 6.604142
0.159242 -1.121954 6.597518
0.166609 -1.121022 6.592036
0.174244 -1.121888 6.597132
0.181774 -1.122039 6.598018
0.189487 -1.123267 6.605241
0.197126 -1.123973 6.609392
0.204674 -1.124129 6.610311
0.212187 -1.124089 6.610074
0.219691 -1.124008 6.609596
0.227132 -1.123619 6.607309
0.234410 -1.122471 6.600561
0.241715 -1.121525 6.594996
0.248998 -1.120532 6.589158
0.256449 -1.120333 6.587989
0.263880 -1.120064 6.586406
0.271251 -1.119559 6.583435
0.278908 -1.120229 6.587374
0.286486 -1.120557 6.589303
0.294156 -1.121216 6.593177
0.301922 -1.122200 6.598967
0.309413 -1.122142 6.598623
0.316904 -1.122082 6.598269
0.324393 -1.122021 6.597909
0.331880 -1.121957 6.597535
0.339095 -1.120992 6.591862
0.346574 -1.120927 6.591478
0.353990 -1.120664 6.589932
0.361175 -1.119697 6.584245
0.368579 -1.119432 6.582688
0.376044 -1.119361 6.582272
0.383399 -1.118970 6.579974
0.390588 -1.118121 6.574979
0.398042 -1.118046 6.574538
0.405494 -1.117969 6.574082
0.412945 -1.117891 6.573628
0.420394 -1.117812 6.573161
0.427840 -1.117729 6.572675
0.435457 -1.118086 6.574771
0.443385 -1.119217 6.581424
0.451493 -1.120756 6.590474
0.458956 -1.120670 6.589969
0.466416 -1.120582 6.589452
0.473412 -1.119397 6.582483
0.480440 -1.118325 6.576180
0.487834 -1.118123 6.574990
0.495312 -1.118119 6.574965
0.503201 -1.119028 6.580312
0.511142 -1.120023 6.586162
0.518878 -1.120549 6.589254
0.526550 -1.120921 6.591445
0.534000 -1.120818 6.590840
0.541449 -1.120717 6.590244
0.548580 -1.119967 6.585833
0.556025 -1.119872 6.585276
0.563784 -1.120401 6.588388
0.571465 -1.120766 6.590532
0.579229 -1.121281 6.593558
0.586673 -1.121171 6.592915
0.594477 -1.121742 6.596272
0.602141 -1.122039 6.598021
0.609918 -1.122538 6.600949
0.617629 -1.122904 6.603102
0.625076 -1.122786 6.602412
0.632521 -1.122669 6.601720
0.639962 -1.122546 6.600998
0.647469 -1.122540 6.600963
0.655480 -1.123399 6.606016
0.663359 -1.124014 6.609631
0.671018 -1.124248 6.611007
0.678461 -1.124118 6.610242
0.685903 -1.123989 6.609485
0.693343 -1.123861 6.608730
0.700778 -1.123727 6.607941
0.708212 -1.123594 6.607160
0.716102 -1.124179 6.610600
0.723778 -1.124420 6.612022
0.731926 -1.125382 6.617674
0.739365 -1.125245 6.616872
0.746799 -1.125103 6.616033
0.754967 -1.126060 6.621663
0.762923 -1.126684 6.625330
0.771120 -1.127647 6.630995
0.778792 -1.127833 6.632088
0.786821 -1.128526 6.636166
0.794447 -1.128635 6.636805
0.801893 -1.128488 6.635940
0.810123 -1.129436 6.641516
0.817568 -1.129282 6.640612
0.825008 -1.129125 6.639687
0.832451 -1.128975 6.638803
0.839374 -1.128128 6.633825
0.846489 -1.127552 6.630434
0.854597 -1.128297 6.634816
0.862178 -1.128340 6.635070
0.869595 -1.128169 6.634068
0.877734 -1.128929 6.638536
0.885998 -1.129837 6.643874
0.893589 -1.129878 6.644116
0.901176 -1.129912 6.644317
0.909330 -1.130653 6.648671
0.916920 -1.130685 6.648858
0.925836 -1.132337 6.658575
0.934191 -1.133283 6.664136
0.941773 -1.133283 6.664135
0.948271 -1.131990 6.656534
0.955036 -1.131033 6.650904
0.962350 -1.130735 6.649154
0.970583 -1.131515 6.653740
0.978963 -1.132452 6.659251
0.987354 -1.133387 6.664748
0.995587 -1.134128 6.669107
1.003271 -1.134237 6.669748
1.011508 -1.134965 6.674027
1.019098 -1.134961 6.674006
1.027348 -1.135689 6.678283
1.034001 -1.134651 6.672184
1.041348 -1.134385 6.670619
1.048581 -1.134000 6.668355
1.054968 -1.132713 6.660784
1.062518 -1.132683 6.660609
1.070754 -1.133379 6.664704
1.079212 -1.134300 6.670115
1.087848 -1.135393 6.676542
1.095275 -1.135218 6.675514
1.104829 -1.137234 6.687372
-1.079420 -1.091732 6.463723
-1.072271 -1.091940 6.464957
-1.065115 -1.092145 6.466169
-1.058958 -1.093383 6.473498
-1.051791 -1.093589 6.474719
-1.045428 -1.094639 6.480937
-1.038194 -1.094786 6.481806
-1.030229 -1.094159 6.478096
-1.022839 -1.094138 6.477969
-1.015648 -1.094330 6.479110
-1.008690 -1.094779 6.481766
-1.002216 -1.095763 6.487591
-0.995011 -1.095957 6.488738
-0.988736 -1.097186 6.496014
-0.981699 -1.097581 6.498357
-0.975251 -1.098646 6.504659
-0.968164 -1.099001 6.506761
-0.960904 -1.099164 6.507728
-0.953608 -1.099289 6.508467
-0.947157 -1.100397 6.515030
-0.939902 -1.100580 6.516113
-0.932631 -1.100749 6.517110
-0.925381 -1.100944 6.518269
-0.918985 -1.102168 6.525511
-0.911845 -1.102511 6.527544
-0.905288 -1.103571 6.533819
-0.897996 -1.103745 6.534852
-0.890692 -1.103907 6.535810
-0.882386 -1.102819 6.529366
-0.873648 -1.101168 6.519594
-0.865682 -1.100472 6.515469
-0.860091 -1.102807 6.529297
-0.856164 -1.107335 6.556106
-0.852494 -1.112278 6.585372
-0.845911 -1.113476 6.592463
-0.838533 -1.113638 6.593424
-0.831146 -1.113791 6.594326
-0.823740 -1.113921 6.595098
-0.815867 -1.113416 6.592109
-0.808156 -1.113126 6.590389
-0.800084 -1.112329 6.585670
-0.790478 -1.109362 6.568108
-0.780710 -1.106109 6.548846
-0.772496 -1.105017 6.542383
-0.764682 -1.104482 6.539212
-0.757053 -1.104207 6.537582
-0.749161 -1.103537 6.533620
-0.741633 -1.103396 6.532784
-0.733897 -1.102939 6.530078
-0.726421 -1.102869 6.529662
-0.719081 -1.103005 6.530466
-0.711781 -1.103206 6.531661
-0.704718 -1.103782 6.535068
-0.697969 -1.104867 6.541494
-0.691035 -1.105681 6.546310
-0.684333 -1.106888 6.553457
-0.676956 -1.107016 6.554215
-0.669572 -1.107136 6.554926
-0.662189 -1.107261 6.555668
-0.654802 -1.107381 6.556379
-0.647413 -1.107501 6.557090
-0.639811 -1.107257 6.555641
-0.632128 -1.106864 6.553313
-0.624738 -1.106979 6.553999
-0.617347 -1.107096 6.554692
-0.609901 -1.107117 6.554812
-0.602442 -1.107114 6.554796
-0.595156 -1.107433 6.556684
-0.587754 -1.107541 6.557325
-0.580350 -1.107649 6.557961
-0.572894 -1.107658 6.558019
-0.565430 -1.107653 6.557986
-0.557805 -1.107327 6.556057
-0.550074 -1.106779 6.552813
-0.542668 -1.106879 6.553407
-0.535261 -1.106981 6.554008
-0.527434 -1.106204 6.549407
-0.519977 -1.106191 6.549333
-0.512526 -1.106191 6.549334
-0.505117 -1.106285 6.549887
-0.497529 -1.105981 6.548090
-0.490296 -1.106470 6.550982
-0.482932 -1.106675 6.552197
-0.476195 -1.108343 6.562075
-0.469227 -1.109521 6.569046
-0.462279 -1.110784 6.576524
-0.454983 -1.111237 6.579208
-0.447531 -1.111321 6.579702
-0.440077 -1.111402 6.580182
-0.432281 -1.110606 6.575469
-0.425038 -1.111226 6.579141
-0.417708 -1.111640 6.581593
-0.410249 -1.111717 6.582050
-0.402787 -1.111792 6.582490
-0.395076 -1.111168 6.578795
-0.387129 -1.109841 6.570944
-0.379353 -1.108962 6.565740
-0.371837 -1.108826 6.564930
-0.364391 -1.108894 6.565336
-0.356988 -1.109100 6.566556
-0.349835 -1.110109 6.572526
-0.342377 -1.110173 6.572905
-0.335245 -1.111320 6.579701
-0.328003 -1.112146 6.584591
-0.320664 -1.112674 6.587716
-0.313450 -1.113672 6.593623
-0.306197 -1.114576 6.598975
-0.298769 -1.114873 6.600735
-0.291558 -1.116017 6.607507
-0.283847 -1.115258 6.603014
-0.275807 -1.113125 6.590387
-0.268095 -1.112239 6.585137
-0.260723 -1.112749 6.588160
-0.253332 -1.113210 6.590887
-0.246038 -1.114136 6.596368
-0.238588 -1.114387 6.597858
-0.231273 -1.115312 6.603334
-0.223769 -1.115354 6.603579
-0.216264 -1.115394 6.603817
-0.208561 -1.114383 6.597830
-0.201055 -1.114381 6.597822
-0.193555 -1.114417 6.598037
-0.186054 -1.114452 6.598243
-0.178552 -1.114485 6.598438
-0.171050 -1.114517 6.598627
-0.163418 -1.113667 6.593592
-0.155892 -1.113488 6.592537
-0.148395 -1.113516 6.592699
-0.140763 -1.112481 6.586572
-0.133270 -1.112480 6.586564
-0.125680 -1.111624 6.581499
-0.118172 -1.111439 6.580405
-0.110688 -1.111460 6.580525
-0.103203 -1.111479 6.580637
-0.095735 -1.111703 6.581967
-0.088318 -1.112599 6.587268
-0.080825 -1.112613 6.587356
-0.073403 -1.113714 6.593871
-0.065902 -1.113726 6.593942
-0.058400 -1.113737 6.594006
-0.050890 -1.113548 6.592886
-0.043389 -1.113546 6.592880
-0.035895 -1.113760 6.594144
-0.028393 -1.113765 6.594173
-0.020908 -1.114649 6.599410
-0.013391 -1.113978 6.595435
-0.005892 -1.114858 6.600646
0.001617 -1.115066 6.601879
0.009128 -1.115064 6.601867
0.016639 -1.115057 6.601823
0.024145 -1.114848 6.600589
0.031654 -1.114814 6.600382
0.039123 -1.113669 6.593606
0.046498 -1.110636 6.575647
0.053875 -1.108497 6.562984
0.061270 -1.107208 6.555352
0.068727 -1.107195 6.555274
0.076184 -1.107180 6.555187
0.083641 -1.107164 6.555091
0.091097 -1.107146 6.554987
0.098631 -1.108003 6.560060
0.106094 -1.108004 6.560063
0.113586 -1.108284 6.561721
0.121168 -1.109351 6.568038
0.128854 -1.111189 6.578923
0.136469 -1.112250 6.585205
0.144098 -1.113311 6.591485
0.151618 -1.113461 6.592374
0.158958 -1.112344 6.585762
0.166446 -1.112312 6.585574
0.173933 -1.112279 6.585377
0.181569 -1.113159 6.590589
0.189246 -1.114212 6.596823
0.196810 -1.114545 6.598792
0.204473 -1.115396 6.603829
0.211979 -1.115356 6.603593
0.219484 -1.115315 6.603348
0.226799 -1.114346 6.597615
0.234067 -1.113213 6.590905
0.241478 -1.112809 6.588511
0.248810 -1.112078 6.584186
0.256290 -1.112029 6.583899
0.263768 -1.111980 6.583606
0.271246 -1.111929 6.583304
0.278722 -1.111876 6.582989
0.286198 -1.111822 6.582668
0.293905 -1.112646 6.587547
0.301384 -1.112588 6.587206
0.309164 -1.113617 6.593298
0.316648 -1.113557 6.592944
0.324131 -1.113497 6.592585
0.331533 -1.113165 6.590619
0.338825 -1.112490 6.586623
0.346298 -1.112425 6.586238
0.353704 -1.112150 6.584613
0.360866 -1.111135 6.578604
0.368183 -1.110630 6.575610
0.375374 -1.109773 6.570539
0.382824 -1.109700 6.570108
0.390273 -1.109627 6.569672
0.397721 -1.109552 6.569232
0.405167 -1.109475 6.568776
0.412688 -1.109605 6.569544
0.420054 -1.109320 6.567854
0.427495 -1.109238 6.567369
0.434967 -1.109240 6.567380
0.442981 -1.110600 6.575433
0.450723 -1.111241 6.579232
0.458223 -1.111277 6.579445
0.465585 -1.110983 6.577704
0.472618 -1.109925 6.571439
0.479838 -1.109334 6.567938
0.487014 -1.108659 6.563941
0.494660 -1.109059 6.566309
0.502531 -1.109943 6.571548
0.510464 -1.110938 6.577434
0.518171 -1.111417 6.580273
0.525611 -1.111319 6.579692
0.533048 -1.111217 6.579089
0.540222 -1.110578 6.575305
0.547383 -1.109930 6.571468
0.554807 -1.109824 6.570840
0.562513 -1.110280 6.573540
0.570206 -1.110698 6.576013
0.578196 -1.111675 6.581800
0.585686 -1.111678 6.581816
0.593634 -1.112539 6.586916
0.601067 -1.112427 6.586254
0.609093 -1.113401 6.592021
0.616528 -1.113284 6.591325
0.623961 -1.113167 6.590636
0.631393 -1.113051 6.589945
0.638821 -1.112929 6.589224
0.646621 -1.113452 6.592322
0.654311 -1.113775 6.594233
0.662385 -1.114737 6.599930
0.669897 -1.114743 6.599967
0.677377 -1.114695 6.599679
0.684679 -1.114360 6.597695
0.692106 -1.114232 6.596941
0.699528 -1.114099 6.596154
0.706949 -1.113968 6.595373
0.714870 -1.114619 6.599233
0.722487 -1.114787 6.600226
0.730620 -1.115740 6.605867
0.738046 -1.115605 6.605067
0.745561 -1.115605 6.605066
0.753620 -1.116412 6.609848
0.761562 -1.117031 6.613509
0.769744 -1.117986 6.619164
0.777940 -1.118944 6.624834
0.785596 -1.119113 6.625839
0.793030 -1.118965 6.624962
0.800571 -1.118971 6.624997
0.808678 -1.119759 6.629664
0.816109 -1.119607 6.628762
0.823536 -1.119451 6.627838
0.830966 -1.119302 6.626955
0.838389 -1.119147 6.626041
0.845804 -1.118983 6.625067
0.853224 -1.118830 6.624163
0.860639 -1.118672 6.623228
0.868043 -1.118503 6.622227
0.876310 -1.119439 6.627768
0.884586 -1.120371 6.633286
0.892866 -1.121292 6.638736
0.900457 -1.121339 6.639017
0.908594 -1.122060 6.643286
0.916189 -1.122105 6.643553
0.924473 -1.122987 6.648776
0.932665 -1.123743 6.653248
0.939459 -1.122816 6.647762
0.946578 -1.122290 6.644649
0.954147 -1.122301 6.644711
0.962245 -1.122929 6.648428
0.969923 -1.123061 6.649215
0.978291 -1.123984 6.654679
0.986650 -1.124882 6.659994
0.995027 -1.125788 6.665356
1.003263 -1.126520 6.669693
1.010688 -1.126339 6.668618
1.019024 -1.127168 6.673528
1.026516 -1.127057 6.672869
1.033175 -1.126040 6.666851
1.040322 -1.125567 6.664051
1.046947 -1.124539 6.657962
1.054301 -1.124304 6.656569
1.061677 -1.124095 6.655334
1.070079 -1.124968 6.660501
1.078533 -1.125882 6.665916
1.086995 -1.126793 6.671307
1.095255 -1.127483 6.675392
1.105023 -1.129705 6.688550
-1.079631 -1.084474 6.464986
-1.072480 -1.084681 6.466221
-1.065308 -1.084868 6.467337
-1.058955 -1.085899 6.473481
-1.051794 -1.086110 6.474739
-1.044806 -1.086503 6.477083
-1.037603 -1.086677 6.478117
-1.029425 -1.085825 6.473040
-1.022028 -1.085790 6.472834
-1.015033 -1.086184 6.475183
-1.007847 -1.086380 6.476349
-1.001620 -1.087619 6.483737
-0.994485 -1.087883 6.485312
-0.988166 -1.089051 6.492272
-0.981911 -1.090307 6.499760
-0.975625 -1.091548 6.507155
-0.968525 -1.091889 6.509188
-0.961113 -1.091882 6.509150
-0.953115 -1.091203 6.505102
-0.946595 -1.092220 6.511163
-0.939344 -1.092402 6.512246
-0.932077 -1.092569 6.513242
-0.924806 -1.092732 6.514217
-0.917543 -1.092909 6.515273
-0.910976 -1.093924 6.521323
-0.903868 -1.094301 6.523570
-0.896556 -1.094435 6.524369
-0.889119 -1.094418 6.524264
-0.881656 -1.094368 6.523966
-0.873543 -1.093504 6.518816
-0.865540 -1.092763 6.514399
-0.858248 -1.092915 6.515305
-0.852825 -1.095470 6.530537
-0.847817 -1.098609 6.549249
-0.841770 -1.100444 6.560189
-0.834750 -1.101029 6.563674
-0.828049 -1.102049 6.569755
-0.821484 -1.103271 6.577043
-0.814155 -1.103478 6.578279
-0.807528 -1.104651 6.585268
-0.799518 -1.103935 6.581003
-0.790971 -1.102459 6.572204
-0.780864 -1.098759 6.550142
-0.771888 -1.096593 6.537235
-0.763799 -1.095658 6.531660
-0.756005 -1.095133 6.528527
-0.748569 -1.095121 6.528456
-0.741050 -1.094985 6.527647
-0.733278 -1.094469 6.524571
-0.725847 -1.094457 6.524502
-0.718513 -1.094592 6.525306
-0.711173 -1.094721 6.526075
-0.703831 -1.094851 6.526849
-0.697170 -1.096052 6.534007
-0.689815 -1.096177 6.534754
-0.682458 -1.096303 6.535503
-0.675101 -1.096430 6.536260
-0.667737 -1.096549 6.536970
-0.660580 -1.097013 6.539734
-0.653646 -1.097864 6.544808
-0.646530 -1.098424 6.548148
-0.639517 -1.099176 6.552630
-0.632129 -1.099291 6.553317
-0.624252 -1.098551 6.548904
-0.616867 -1.098667 6.549597
-0.609423 -1.098681 6.549682
-0.601966 -1.098671 6.549623
-0.594630 -1.098883 6.550887
-0.587297 -1.099109 6.552230
-0.580350 -1.100071 6.557967
-0.572500 -1.099323 6.553509
-0.564984 -1.099206 6.552811
-0.557148 -1.098456 6.548338
-0.549640 -1.098339 6.547642
-0.542240 -1.098439 6.548235
-0.534839 -1.098540 6.548837
-0.527024 -1.097782 6.544319
-0.519624 -1.097877 6.544887
-0.512169 -1.097857 6.544771
-0.504506 -1.097387 6.541965
-0.496927 -1.097086 6.540171
-0.489739 -1.097652 6.543547
-0.482501 -1.098122 6.546345
-0.475301 -1.098694 6.549760
-0.468399 -1.099986 6.557457
-0.461578 -1.101511 6.566548
-0.454233 -1.101816 6.568370
-0.446830 -1.101989 6.569398
-0.439388 -1.102069 6.569878
-0.431946 -1.102151 6.570364
-0.424501 -1.102229 6.570832
-0.417054 -1.102305 6.571287
-0.409525 -1.102163 6.570440
-0.402128 -1.102377 6.571711
-0.394655 -1.102389 6.571783
-0.386876 -1.101526 6.566638
-0.379160 -1.100814 6.562396
-0.371569 -1.100444 6.560191
-0.363820 -1.099583 6.555058
-0.356661 -1.100505 6.560552
-0.349265 -1.100718 6.561825
-0.342025 -1.101443 6.566145
-0.334700 -1.101923 6.569006
-0.327519 -1.102907 6.574873
-0.320056 -1.102966 6.575227
-0.312897 -1.104102 6.581995
-0.305597 -1.104783 6.586054
-0.298226 -1.105234 6.588745
-0.290760 -1.105347 6.589416
-0.283220 -1.105181 6.588427
-0.275320 -1.103560 6.578766
-0.267783 -1.103343 6.577472
-0.260518 -1.104268 6.582986
-0.253124 -1.104686 6.585476
-0.245844 -1.105641 6.591169
-0.238355 -1.105685 6.591432
-0.230865 -1.105728 6.591691
-0.223374 -1.105769 6.591936
-0.215882 -1.105809 6.592173
-0.208390 -1.105848 6.592403
-0.200768 -1.105178 6.588414
-0.193213 -1.104841 6.586402
-0.185726 -1.104876 6.586608
-0.178237 -1.104908 6.586804
-0.170748 -1.104940 6.586992
-0.163150 -1.104235 6.582789
-0.155621 -1.103950 6.581093
-0.148133 -1.103947 6.581074
-0.140649 -1.103973 6.581230
-0.133038 -1.102946 6.575105
-0.125557 -1.102943 6.575090
-0.118079 -1.102965 6.575220
-0.110600 -1.102985 6.575341
-0.103121 -1.103004 6.575454
-0.095642 -1.103022 6.575558
-0.088180 -1.103257 6.576958
-0.080757 -1.104070 6.581808
-0.073274 -1.104144 6.582246
-0.065786 -1.104156 6.582316
-0.058243 -1.103142 6.576272
-0.050760 -1.103098 6.576009
-0.043278 -1.103105 6.576056
-0.035797 -1.103112 6.576094
-0.028338 -1.103976 6.581244
-0.020854 -1.104194 6.582548
-0.013376 -1.105053 6.587664
-0.005887 -1.106139 6.594140
0.001616 -1.106359 6.595451
0.009119 -1.106357 6.595439
0.016623 -1.106349 6.595393
0.024121 -1.106107 6.593950
0.031592 -1.105015 6.587442
0.039048 -1.103923 6.580931
0.046452 -1.101963 6.569243
0.053820 -1.099795 6.556319
0.061162 -1.097694 6.543795
0.068606 -1.097681 6.543716
0.076050 -1.097666 6.543629
0.083493 -1.097650 6.543533
0.090936 -1.097633 6.543430
0.098379 -1.097614 6.543318
0.105832 -1.097702 6.543843
0.113386 -1.098760 6.550151
0.120944 -1.099720 6.555873
0.128534 -1.100849 6.562604
0.136134 -1.101933 6.569064
0.143727 -1.102844 6.574499
0.151320 -1.103674 6.579447
0.158678 -1.102786 6.574150
0.166153 -1.102754 6.573962
0.173592 -1.102503 6.572463
0.181124 -1.102832 6.574428
0.188726 -1.103549 6.578697
0.196396 -1.104591 6.584914
0.204113 -1.105811 6.592185
0.211605 -1.105771 6.591949
0.219097 -1.105730 6.591704
0.226541 -1.105461 6.590096
0.233809 -1.104378 6.583641
0.241142 -1.103660 6.579360
0.248617 -1.103612 6.579078
0.256091 -1.103564 6.578791
0.263666 -1.103944 6.581053
0.271300 -1.104543 6.584623
0.278667 -1.104049 6.581682
0.285961 -1.103300 6.577215
0.293386 -1.103084 6.575930
0.300852 -1.103027 6.575589
0.308403 -1.103277 6.577077
0.316089 -1.103988 6.581317
0.323559 -1.103928 6.580959
0.331028 -1.103865 6.580584
0.338495 -1.103802 6.580205
0.345961 -1.103737 6.579822
0.353336 -1.103390 6.577754
0.360584 -1.102672 6.573471
0.367680 -1.101525 6.566634
0.375078 -1.101311 6.565359
0.382417 -1.100936 6.563124
0.389662 -1.100309 6.559384
0.397407 -1.101092 6.564052
0.404847 -1.101015 6.563596
0.412317 -1.101022 6.563638
0.419723 -1.100861 6.562675
0.427158 -1.100779 6.562189
0.434626 -1.100787 6.562234
0.442492 -1.101781 6.568162
0.450332 -1.102683 6.573536
0.457776 -1.102598 6.573032
0.465063 -1.102144 6.570326
0.472195 -1.101346 6.565565
0.479159 -1.100184 6.558642
0.486580 -1.100092 6.558089
0.494000 -1.100001 6.557546
0.501954 -1.101083 6.563999
0.509875 -1.102063 6.569844
0.517762 -1.102942 6.575080
0.525196 -1.102844 6.574500
0.532213 -1.101885 6.568783
0.539530 -1.101567 6.566885
0.546471 -1.100499 6.560520
0.553828 -1.100286 6.559247
0.561295 -1.100295 6.559300
0.569200 -1.101152 6.564409
0.577176 -1.102121 6.570186
0.584954 -1.102693 6.573596
0.592650 -1.103097 6.576003
0.600592 -1.103944 6.581054
0.608018 -1.103832 6.580388
0.615440 -1.103715 6.579692
0.622860 -1.103600 6.579005
0.630279 -1.103484 6.578314
0.637693 -1.103364 6.577595
0.645480 -1.103882 6.580688
0.653461 -1.104717 6.585664
0.661216 -1.105156 6.588280
0.669292 -1.106116 6.594002
0.676716 -1.105988 6.593239
0.683805 -1.105322 6.589272
0.691021 -1.104874 6.586601
0.698343 -1.104602 6.584980
0.705791 -1.104534 6.584574
0.713804 -1.105341 6.589386
0.721583 -1.105774 6.591963
0.729330 -1.106150 6.594205
0.736743 -1.106016 6.593406
0.744692 -1.106681 6.597372
0.752290 -1.106816 6.598177
0.760217 -1.107429 6.601831
0.768385 -1.108376 6.607476
0.776788 -1.109641 6.615020
0.784209 -1.109494 6.614139
0.791786 -1.109567 6.614575
0.799502 -1.109832 6.616153
0.807090 -1.109914 6.616644
0.814506 -1.109763 6.615743
0.822040 -1.109773 6.615803
0.829498 -1.109680 6.615251
0.836743 -1.109307 6.613028
0.843486 -1.108281 6.606910
0.851400 -1.108800 6.610002
0.859119 -1.109056 6.611528
0.866510 -1.108888 6.610529
0.874727 -1.109771 6.615793
0.883576 -1.111435 6.625711
0.891994 -1.112533 6.632256
0.899577 -1.112579 6.632529
0.907751 -1.113349 6.637120
0.915444 -1.113522 6.638154
0.923598 -1.114247 6.642477
0.931017 -1.114082 6.641492
0.937650 -1.112987 6.634964
0.944906 -1.112642 6.632908
0.953112 -1.113414 6.637507
0.961484 -1.114364 6.643174
0.969830 -1.115271 6.648577
0.978180 -1.116167 6.653924
0.985879 -1.116313 6.654792
0.994073 -1.117013 6.658962
1.002395 -1.117845 6.663923
1.009887 -1.117746 6.663334
1.017473 -1.117752 6.663369
1.024904 -1.117588 6.662395
1.032123 -1.117198 6.660066
1.039498 -1.116980 6.658770
1.046086 -1.115927 6.652488
1.053478 -1.115740 6.651373
1.060848 -1.115533 6.650139
1.069277 -1.116434 6.655511
1.077712 -1.117328 6.660844
1.086146 -1.118209 6.666097
1.094387 -1.118881 6.670099
1.103943 -1.120879 6.682009
-1.079591 -1.076963 6.464747
-1.072435 -1.077163 6.465948
-1.064470 -1.076547 6.462252
-1.058316 -1.077768 6.469576
-1.051184 -1.078001 6.470980
-1.044989 -1.079207 6.478218
-1.037750 -1.079343 6.479036
-1.029556 -1.078482 6.473862
-1.021400 -1.077648 6.468857
-1.014220 -1.077838 6.469997
-1.008024 -1.079085 6.477486
-1.001796 -1.080316 6.484874
-0.994660 -1.080578 6.486449
-0.989098 -1.082569 6.498395
-0.982838 -1.083817 6.505891
-0.976730 -1.085255 6.514523
-0.969470 -1.085425 6.515543
-0.962135 -1.085512 6.516067
-0.954226 -1.084949 6.512682
-0.946762 -1.084886 6.512308
-0.939509 -1.085067 6.513392
-0.931331 -1.084174 6.508030
-0.924066 -1.084336 6.509005
-0.917512 -1.085343 6.515050
-0.910268 -1.085543 6.516253
-0.903145 -1.085893 6.518351
-0.895682 -1.085836 6.518010
-0.888270 -1.085841 6.518037
-0.880246 -1.085090 6.513532
-0.872118 -1.084198 6.508176
-0.864663 -1.084135 6.507797
-0.856753 -1.083494 6.503953
-0.850455 -1.084900 6.512393
-0.844778 -1.087129 6.525770
-0.837963 -1.087921 6.530522
-0.830655 -1.088079 6.531474
-0.824297 -1.089498 6.539991
-0.817608 -1.090500 6.546004
-0.811225 -1.091933 6.554606
-0.804667 -1.093155 6.561943
-0.797921 -1.094141 6.567863
-0.789731 -1.093148 6.561898
-0.780666 -1.090912 6.548478
-0.771379 -1.088321 6.532924
-0.763133 -1.087162 6.525970
-0.755288 -1.086557 6.522337
-0.747389 -1.085862 6.518165
-0.739912 -1.085771 6.517622
-0.732586 -1.085903 6.518412
-0.725072 -1.085757 6.517532
-0.717380 -1.085338 6.515021
-0.710242 -1.085757 6.517536
-0.703261 -1.086427 6.521556
-0.695924 -1.086557 6.522336
-0.688583 -1.086681 6.523082
-0.681240 -1.086806 6.523831
-0.673556 -1.086384 6.521296
-0.665894 -1.085989 6.518925
-0.659112 -1.087035 6.525207
-0.652099 -1.087721 6.529321
-0.645375 -1.088909 6.536453
-0.638714 -1.090233 6.544401
-0.631616 -1.090833 6.548006
-0.624026 -1.090587 6.546526
-0.616374 -1.090227 6.544368
-0.608934 -1.090236 6.544418
-0.601479 -1.090218 6.544314
-0.594151 -1.090435 6.545614
-0.587038 -1.091055 6.549338
-0.579880 -1.091608 6.552654
-0.572271 -1.091314 6.550890
-0.564587 -1.090867 6.548209
-0.556920 -1.090442 6.545655
-0.549194 -1.089889 6.542337
-0.541800 -1.089988 6.542931
-0.534405 -1.090088 6.543531
-0.527007 -1.090184 6.544109
-0.519209 -1.089444 6.539666
-0.511757 -1.089417 6.539506
-0.504101 -1.088951 6.536710
-0.496426 -1.088430 6.533579
-0.489034 -1.088521 6.534129
-0.481640 -1.088610 6.534658
-0.474243 -1.088696 6.535177
-0.467259 -1.089748 6.541492
-0.460548 -1.091481 6.551892
-0.453369 -1.092145 6.555880
-0.446000 -1.092364 6.557193
-0.438945 -1.093374 6.563257
-0.431510 -1.093455 6.563743
-0.424162 -1.093763 6.565592
-0.416721 -1.093839 6.566047
-0.409194 -1.093684 6.565121
-0.401751 -1.093758 6.565562
-0.394308 -1.093831 6.565999
-0.386863 -1.093903 6.566431
-0.379126 -1.093134 6.561818
-0.371443 -1.092494 6.557977
-0.363834 -1.092049 6.555305
-0.356373 -1.092039 6.555242
-0.348985 -1.092260 6.556569
-0.341749 -1.092974 6.560855
-0.334432 -1.093455 6.563746
-0.327003 -1.093585 6.564522
-0.319726 -1.094240 6.568455
-0.312052 -1.093535 6.564225
-0.304815 -1.094365 6.569208
-0.297419 -1.094650 6.570916
-0.289957 -1.094703 6.571237
-0.282495 -1.094756 6.571552
-0.274873 -1.094175 6.568067
-0.267517 -1.094654 6.570939
-0.260100 -1.094903 6.572435
-0.252881 -1.096020 6.579139
-0.245446 -1.096244 6.580488
-0.238162 -1.097179 6.586100
-0.230678 -1.097222 6.586357
-0.223193 -1.097263 6.586602
-0.215574 -1.096624 6.582768
-0.208018 -1.096270 6.580640
-0.200538 -1.096306 6.580860
-0.192901 -1.095456 6.575758
-0.185394 -1.095306 6.574855
-0.177919 -1.095339 6.575051
-0.170444 -1.095370 6.575239
-0.162968 -1.095400 6.575417
-0.155491 -1.095428 6.575589
-0.147900 -1.094616 6.570716
-0.140398 -1.094412 6.569488
-0.132927 -1.094436 6.569633
-0.125456 -1.094459 6.569771
-0.117983 -1.094481 6.569901
-0.110511 -1.094501 6.570021
-0.103038 -1.094519 6.570133
-0.095565 -1.094537 6.570238
-0.088091 -1.094553 6.570334
-0.080617 -1.094568 6.570422
-0.073143 -1.094581 6.570501
-0.065668 -1.094593 6.570572
-0.058193 -1.094603 6.570635
-0.050671 -1.093589 6.564550
-0.043201 -1.093551 6.564322
-0.035733 -1.093558 6.564360
-0.028265 -1.093562 6.564389
-0.020797 -1.093566 6.564411
-0.013339 -1.094406 6.569454
-0.005870 -1.095475 6.575869
0.001613 -1.096546 6.582299
0.009101 -1.096544 6.582286
0.016590 -1.096520 6.582145
0.024036 -1.094626 6.570775
0.031504 -1.094363 6.569193
0.038947 -1.093502 6.564027
0.046369 -1.092419 6.557523
0.053724 -1.090269 6.544622
0.061065 -1.088402 6.533412
0.068484 -1.088173 6.532040
0.075914 -1.088159 6.531954
0.083344 -1.088143 6.531859
0.090776 -1.088146 6.531875
0.098300 -1.089171 6.538025
0.105738 -1.089174 6.538044
0.113306 -1.090423 6.545543
0.120846 -1.091262 6.550578
0.128332 -1.091543 6.552265
0.135916 -1.092589 6.558546
0.143474 -1.093323 6.562954
0.150933 -1.093264 6.562597
0.158395 -1.093234 6.562419
0.165694 -1.092136 6.555826
0.173142 -1.092066 6.555406
0.180569 -1.091879 6.554282
0.188203 -1.092912 6.560483
0.195852 -1.093945 6.566683
0.203579 -1.095322 6.574953
0.211227 -1.096194 6.580186
0.218706 -1.096154 6.579943
0.226183 -1.096111 6.579684
0.233480 -1.095228 6.574385
0.240950 -1.095183 6.574117
0.248621 -1.096028 6.579191
0.256137 -1.096158 6.579970
0.263868 -1.097180 6.586105
0.271335 -1.097072 6.585455
0.278556 -1.096006 6.579059
0.285748 -1.094883 6.572318
0.292925 -1.093760 6.565577
0.300379 -1.093704 6.565236
0.308068 -1.094485 6.569926
0.315525 -1.094426 6.569572
0.323050 -1.094597 6.570597
0.330507 -1.094534 6.570223
0.338043 -1.094733 6.571417
0.345681 -1.095246 6.574496
0.353051 -1.094906 6.572456
0.360153 -1.093765 6.565608
0.367386 -1.093060 6.561372
0.374675 -1.092549 6.558304
0.381840 -1.091700 6.553210
0.389269 -1.091628 6.552775
0.396698 -1.091555 6.552336
0.404272 -1.091877 6.554272
0.411952 -1.092470 6.557829
0.419383 -1.092392 6.557361
0.426812 -1.092311 6.556876
0.434240 -1.092231 6.556398
0.441897 -1.092721 6.559337
0.449529 -1.093132 6.561803
0.456959 -1.093048 6.561299
0.464387 -1.092962 6.560783
0.471352 -1.091806 6.553844
0.478564 -1.091249 6.550503
0.485711 -1.090563 6.546382
0.493394 -1.091083 6.549503
0.501295 -1.092062 6.555382
0.509415 -1.093483 6.563911
0.517135 -1.094017 6.567119
0.524771 -1.094360 6.569175
0.531788 -1.093421 6.563542
0.539093 -1.093092 6.561566
0.546032 -1.092039 6.555244
0.553379 -1.091821 6.553933
0.560782 -1.091718 6.553314
0.568532 -1.092281 6.556699
0.576210 -1.092696 6.559187
0.584120 -1.093534 6.564220
0.592106 -1.094491 6.569964
0.599520 -1.094381 6.569303
0.607060 -1.094500 6.570019
0.614397 -1.094255 6.568544
0.621748 -1.094040 6.567255
0.629153 -1.093925 6.566566
0.636554 -1.093806 6.565848
0.644327 -1.094320 6.568934
0.652289 -1.095139 6.573855
0.660035 -1.095582 6.576513
0.668097 -1.096534 6.582225
0.675507 -1.096407 6.581464
0.682916 -1.096281 6.580709
