ply
format ascii 1.0
comment generated by convert_depth_to_ply.py
element vertex 1575
property float x
property float y
property float z
end_header
0.524656 14.381276 123.109795
0.737748 14.490885 124.048088
0.943953 14.446678 123.669662
1.148892 14.402607 123.292397
1.361361 14.451959 123.714867
1.587223 14.611501 125.080620
1.820890 14.797051 126.668999
2.061119 14.991379 128.332535
2.308977 15.199017 130.110001
2.560984 15.395571 131.792587
2.829115 15.649940 133.970093
3.149811 16.135987 138.130859
3.525729 16.818547 143.973862
3.836746 17.123540 146.584732
4.242494 17.788833 152.279922
5.695762 22.519900 192.779846
6.186306 23.139305 198.082214
6.470490 22.962926 196.572342
6.801422 22.961554 196.560593
7.132292 22.960106 196.548203
7.463103 22.958607 196.535370
7.801344 22.979122 196.710983
8.159743 23.054920 197.359848
8.521432 23.133711 198.034332
8.854557 23.131938 198.019150
9.228792 23.233792 198.891068
9.577120 23.265568 199.163086
9.912273 23.264273 199.151993
9.961312 22.613542 193.581467
8.968160 19.713216 168.753448
8.030935 17.110371 146.472000
8.157454 16.861562 144.342087
8.452767 16.965958 145.235764
8.832806 17.229749 147.493927
8.745744 16.592889 142.042130
8.815647 16.279835 139.362259
9.010306 16.207440 138.742523
9.271250 16.254921 139.148987
9.712727 16.608772 142.178101
12.966602 21.638978 185.238785
13.974614 22.772805 194.944824
11.264762 17.935152 153.532471
10.408708 16.200017 138.678986
10.600556 16.136226 138.132904
10.754914 16.019336 137.132278
10.978481 16.008283 137.037659
11.189881 15.980309 136.798187
11.201086 15.673337 134.170380
11.234966 15.409617 131.912827
11.347233 15.261561 130.645401
11.475253 15.139924 129.604141
11.589592 15.005120 128.450165
11.726017 14.903331 127.578804
11.925294 14.883652 127.410347
12.138148 14.881315 127.390335
12.350829 14.878850 127.369232
12.563460 14.876410 127.348351
12.784419 14.883749 127.411171
13.047930 14.939564 127.888977
13.313281 14.995639 128.369003
13.709811 15.195313 130.078293
14.092311 15.373395 131.602753
14.542372 15.618519 133.701111
5.532800 5.851549 50.091732
4.620999 4.813758 41.207798
4.672116 4.794934 41.046661
4.695341 4.748452 40.648750
4.716621 4.701367 40.245689
4.754187 4.671622 39.991055
4.794262 4.645139 39.764347
4.848111 4.632547 39.656559
4.894894 4.613639 39.494698
4.960284 4.612540 39.485287
5.027856 4.613473 39.493275
5.103130 4.621356 39.560757
5.176837 4.627635 39.614506
5.263022 4.644766 39.761158
5.370894 4.680365 40.065899
5.505689 4.738250 40.561420
5.880703 4.998914 42.792816
11.568687 9.714848 83.163200
15.670338 13.001682 111.299889
16.588287 13.600480 116.425850
17.210347 13.945518 119.379517
17.495336 14.012607 119.953835
17.791795 14.087246 120.592773
18.034185 14.117872 120.854942
18.332505 14.191109 121.481880
18.526573 14.182917 121.411758
18.410828 13.940321 119.335030
18.213612 13.641947 116.780823
18.453094 13.673541 117.051285
18.658469 13.679462 117.101967
16.818169 12.201171 104.447174
16.970723 12.184299 104.302742
17.916269 12.731271 108.985054
17.971583 12.640964 108.211990
18.107685 12.608725 107.936012
18.193420 12.542407 107.368294
18.301244 12.492471 106.940826
18.403564 12.439790 106.489853
18.538594 12.410023 106.235031
18.847973 12.496420 106.974632
19.088487 12.535955 107.313065
18.575681 12.084665 103.449829
18.492883 11.918914 102.030937
19.678096 12.565939 107.569740
19.994640 12.651502 108.302200
20.044517 12.568312 107.590057
20.314185 12.623192 108.059853
20.685285 12.739566 109.056061
21.444448 13.090782 112.062622
21.682633 13.120611 112.317970
21.635784 12.978937 111.105179
21.502992 12.788580 109.475647
21.551390 12.708307 108.788475
21.609473 12.635051 108.161369
21.656013 12.556328 107.487465
21.788580 12.528376 107.248184
21.961957 12.524157 107.212067
22.124592 12.513930 107.124527
22.221750 12.467135 106.723938
22.374605 12.452088 106.595131
22.557955 12.454118 106.612503
22.684284 12.424882 106.362236
22.820073 12.401246 106.159904
23.060303 12.434294 106.442802
23.343718 12.489937 106.919128
23.667866 12.566354 107.573296
23.928162 12.607965 107.929504
24.136204 12.621624 108.046425
24.273725 12.598475 107.848267
24.433477 12.587124 107.751091
24.728644 12.645185 108.248123
26.129110 13.263459 113.540810
33.958937 17.112635 146.491379
38.945799 19.483950 166.790833
43.114362 21.414826 183.319946
44.086240 21.741733 186.118408
45.074832 22.072205 188.947388
45.222264 21.989030 188.235382
47.833049 23.096459 197.715439
49.391690 23.684045 202.745422
49.728580 23.681733 202.725632
49.795918 23.551963 201.614746
50.115680 23.542532 201.534012
50.435062 23.533051 201.452850
50.992015 23.633806 202.315353
51.473232 23.698353 202.867905
51.835023 23.707428 202.945587
52.523217 23.864689 204.291809
53.040147 23.942592 204.958694
53.628827 24.051666 205.892410
54.742978 24.393487 208.818542
55.521728 24.582440 210.436066
55.848694 24.570236 210.331589
-15.398356 6.706868 56.575462
-14.759133 6.468509 54.564800
-13.489224 5.949016 50.182640
-12.952089 5.748174 48.488449
-12.989904 5.801566 48.938831
-12.666416 5.693243 48.025082
-12.329160 5.577299 47.047043
-12.303751 5.601836 47.254025
-12.363541 5.665736 47.793049
-12.362997 5.702645 48.104389
-12.261637 5.693230 48.024975
-12.168079 5.687338 47.975266
-12.063545 5.676201 47.881325
-11.882891 5.628857 47.481956
-11.672821 5.566843 46.958836
-11.493726 5.518854 46.554031
-11.047043 5.340837 45.052376
-10.836788 5.275451 44.500816
-10.911967 5.349074 45.121861
-10.891739 5.376633 45.354336
-10.808425 5.373220 45.325542
-10.830875 5.422712 45.743027
-10.825774 5.459020 46.049301
-10.802613 5.486679 46.282623
-10.859211 5.555547 46.863548
-10.945750 5.640852 47.583141
-10.816019 5.615141 47.366257
-10.723890 5.608713 47.312035
-11.853763 6.246099 52.688671
-16.373765 8.692952 73.328979
-18.898799 10.109827 85.280968
-18.300533 9.864822 83.214233
-17.901511 9.724262 82.028549
-17.938189 9.820033 82.836418
-17.915258 9.884418 83.379539
-17.862314 9.933132 83.790459
-17.783793 9.968285 84.086990
-17.741008 10.024195 84.558617
-17.597455 10.023612 84.553703
-17.314539 9.942990 83.873619
-17.289465 10.010327 84.441635
-17.354286 10.131262 85.461777
-17.325141 10.198905 86.032379
-17.171229 10.193623 85.987823
-17.085594 10.229129 86.287331
-17.158811 10.361165 87.401115
-17.318017 10.547861 88.975983
-17.524345 10.766771 90.822586
-17.664997 10.948833 92.358360
-17.896995 11.191252 94.403275
-18.038063 11.380651 96.000938
-17.978019 11.445443 96.547493
-17.919370 11.512316 97.111595
-17.728037 11.494393 96.960403
-17.440662 11.413285 96.276222
-17.110530 11.302411 95.340950
-16.851243 11.236675 94.786438
-16.627466 11.193586 94.422958
-16.435082 11.171002 94.232452
-16.216751 11.130169 93.888008
-15.943969 11.050790 93.218414
-15.489920 10.842945 91.465149
-15.206617 10.751644 90.694984
-10.512472 7.508190 63.334976
-10.354104 7.470950 63.020840
-10.218196 7.449311 62.838310
-10.153104 7.479387 63.092014
-10.129479 7.540970 63.611492
-10.382852 7.812290 65.900200
-11.758271 8.942860 75.437073
-14.164426 10.890656 91.867615
-13.950439 10.844685 91.479828
-13.838146 10.877624 91.757683
-13.598661 10.810197 91.188904
-13.439059 10.805457 91.148918
-13.197282 10.733772 90.544220
-13.044743 10.733838 90.544777
-12.885795 10.728570 90.500343
-12.745063 10.738524 90.584305
-12.595480 10.741171 90.606636
-12.445867 10.743857 90.629295
-12.392029 10.830316 91.358612
-12.280795 10.868155 91.677803
-12.184015 10.919914 92.114418
-12.031359 10.922284 92.134407
-11.878602 10.924623 92.154137
-11.725732 10.926918 92.173500
-11.572708 10.929130 92.192154
-11.419577 10.931299 92.210457
-11.270577 10.937537 92.263077
-11.153031 10.974903 92.578270
-11.038786 11.016622 92.930191
-10.891146 11.025734 93.007057
-10.742014 11.033580 93.073242
-10.615175 11.064897 93.337410
-10.426671 11.031912 93.059166
-10.279813 11.042654 93.149780
-10.230562 11.160207 94.141396
-10.389544 11.512198 97.110596
-10.493396 11.813392 99.651306
-10.463491 11.971354 100.983788
-10.475893 12.183744 102.775391
-10.508669 12.427371 104.830498
-10.617095 12.770323 107.723450
-11.747387 14.375705 121.265572
-13.912192 17.326331 146.155441
-15.429244 19.562082 165.015015
-16.375037 21.142350 178.345291
-16.748256 22.028631 185.821472
-16.505609 22.123220 186.619370
-16.170745 22.095479 186.385361
-15.889325 22.141112 186.770294
-15.294405 21.742910 183.411285
-13.904971 20.175474 170.189255
-12.049808 17.852016 150.589828
-11.279177 17.069892 143.992264
-10.856686 16.791830 141.646683
-10.531460 16.655083 140.493164
-10.256935 16.594070 139.978485
-10.060731 16.659879 140.533615
-9.914954 16.814378 141.836884
-9.710159 16.873953 142.339432
-10.111694 18.016899 151.980698
-12.434968 22.732399 191.758072
-12.964398 24.332735 205.257629
-12.574035 24.247148 204.535660
-12.138185 24.066545 203.012192
-11.662152 23.793482 200.708786
-11.143435 23.414415 197.511185
-10.522911 22.791499 192.256607
-9.326816 20.842761 175.818115
-7.560094 17.449080 147.190887
-6.529075 15.580756 131.430725
-5.912296 14.604437 123.195030
-5.502469 14.086859 118.829025
-5.191454 13.792699 116.347656
-4.898391 13.525010 114.089577
-4.628591 13.302301 112.210930
-4.389937 13.153939 110.959427
-4.156100 13.007452 109.723740
-3.940169 12.905967 108.867668
-3.725233 12.797990 107.956833
-3.515105 12.696282 107.098885
-3.327484 12.669263 106.870964
-3.137537 12.629783 106.537933
-2.950462 12.597777 106.267952
-2.769836 12.590946 106.210327
-2.588994 12.582121 106.135880
-2.408404 12.573300 106.061470
-2.245062 12.660331 106.795616
-2.083029 12.770564 107.725487
-1.930191 12.963602 109.353851
-1.759884 13.067688 110.231857
-1.577308 13.094494 110.457985
-1.401036 13.187810 111.245140
-1.214506 13.198489 111.335228
-1.033227 13.280573 112.027641
-0.850947 13.383619 112.896881
-0.665906 13.490100 113.795097
-0.478582 13.617771 114.872063
-0.288110 13.768525 116.143738
-0.093438 13.932156 117.524040
0.106239 14.142621 119.299408
0.311209 14.321203 120.805824
0.521297 14.500889 122.321556
0.732352 14.597999 123.140724
0.939022 14.584120 123.023651
1.143353 14.545502 122.697891
1.354141 14.588280 123.058739
1.574504 14.709149 124.078323
1.801089 14.852976 125.291573
2.042383 15.075181 127.165970
2.276504 15.207260 128.280121
2.532145 15.447714 130.308456
2.796883 15.700853 132.443802
3.095263 16.091461 135.738754
3.437482 16.640513 140.370255
3.776181 17.102913 144.270813
4.224026 17.973786 151.617020
5.761954 23.119118 195.020218
6.200983 23.537821 198.552170
6.474537 23.317694 196.695297
6.821537 23.370636 197.141891
7.154914 23.374160 197.171616
7.486843 23.372849 197.160553
7.849312 23.462940 197.920517
8.186455 23.473065 198.005920
8.519577 23.471321 197.991211
8.893018 23.576600 198.879288
9.253332 23.640693 199.419937
9.593147 23.649755 199.496384
9.922880 23.634191 199.365097
10.223436 23.552430 198.675400
10.518541 23.463696 197.926895
9.831818 21.257586 179.317352
8.264890 17.336723 146.243103
8.267983 16.840921 142.060791
8.410650 16.649324 140.444580
8.549337 16.460556 138.852234
8.736991 16.373613 138.118835
8.937099 16.313916 137.615265
9.197103 16.363811 138.036148
9.492981 16.473495 138.961380
11.314812 19.162172 161.641586
12.139194 20.074898 169.340851
10.276408 16.603941 140.061752
10.273577 16.226585 136.878586
10.522642 16.254923 137.117630
10.920767 16.507355 139.247009
11.436666 16.923443 142.756897
11.689412 16.941004 142.905029
11.404299 16.194097 136.604538
11.340331 15.784565 133.149948
11.386909 15.541811 131.102203
11.490461 15.384582 129.775909
11.601116 15.242559 128.577881
11.723482 15.120852 127.551224
11.922716 15.100885 127.382797
12.135525 15.098514 127.362801
12.348160 15.096015 127.341713
12.560746 15.093540 127.320839
12.773188 15.090980 127.299240
13.027176 15.136776 127.685555
13.292489 15.194030 128.168518
13.661519 15.366111 129.620102
14.125977 15.638420 131.917145
14.074923 15.340425 129.403427
5.989155 6.428035 54.223385
4.625655 4.889996 41.249325
4.671111 4.864923 41.037827
4.687807 4.811067 40.583523
4.716204 4.770595 40.242130
4.744790 4.731461 39.912010
4.784389 4.704248 39.682457
4.831182 4.684762 39.518089
4.893717 4.680864 39.485203
4.951367 4.672459 39.414307
5.024678 4.678861 39.468311
5.091931 4.679528 39.473934
5.175651 4.695116 39.605431
5.253530 4.705077 39.689449
5.352725 4.733636 39.930363
5.484791 4.790195 40.407459
5.935459 5.120207 43.191265
13.321884 11.352836 95.766312
15.651062 13.178070 111.162979
16.484172 13.715342 115.695114
17.167051 14.116515 119.079193
17.494824 14.219786 119.950325
17.767067 14.276077 120.425171
18.029536 14.323333 120.823792
18.242072 14.330306 120.882614
18.419135 14.309568 120.707680
18.302047 14.063257 118.629936
18.206943 13.838980 116.738060
18.313819 13.771382 116.167839
18.793583 13.982647 117.949951
17.539775 12.913192 108.928619
16.114151 11.740712 99.038216
17.613610 12.701627 107.143974
17.936845 12.803442 108.002823
18.043039 12.749841 107.550674
18.138316 12.689669 107.043098
18.234905 12.631591 106.553185
18.344816 12.583784 106.149910
18.518629 12.580312 106.120621
18.729843 12.602071 106.304169
18.922265 12.610893 106.378586
18.422501 12.162567 102.596756
18.386809 12.026112 101.445694
19.523234 12.651745 106.723190
19.874041 12.761494 107.648972
20.040292 12.751821 107.567383
20.230234 12.757263 107.613281
20.488894 12.805555 108.020653
21.023608 13.024012 109.863434
21.349059 13.110148 110.590027
21.371523 13.010343 109.748131
21.337017 12.877867 108.630638
21.445357 12.833127 108.253235
21.570559 12.799146 107.966591
21.618229 12.720115 107.299927
21.784022 12.711321 107.225746
21.957362 12.707041 107.189636
22.130528 12.702729 107.153267
22.224228 12.653244 106.735840
22.430357 12.668051 106.860741
22.649520 12.689924 107.045250
22.768318 12.655665 106.756256
22.815317 12.582346 106.137779
22.997092 12.583917 106.151031
23.265027 12.632246 106.558708
23.387832 12.601637 106.300507
23.532599 12.583237 106.145294
23.702877 12.578652 106.106621
23.966839 12.623481 106.484772
24.214158 12.658941 106.783897
24.527081 12.727923 107.365791
25.216355 12.989765 109.574547
26.670907 13.639152 115.052422
27.151283 13.784580 116.279167
27.371596 13.796836 116.382553
27.567611 13.796757 116.381889
28.495439 14.160342 119.448891
28.857680 14.239738 120.118629
41.580721 20.374931 171.871765
48.853387 23.772971 200.535767
49.840704 24.086761 203.182724
49.785682 23.895968 201.573303
50.105389 23.886405 201.492630
50.424717 23.876790 201.411530
50.777008 23.882809 201.462296
51.299882 23.968447 202.184692
51.783341 24.034661 202.743240
52.178097 24.059106 202.949448
52.834809 24.203233 204.165222
53.394402 24.301293 204.992401
54.386198 24.593535 207.457596
55.119070 24.765705 208.909927
55.486350 24.772467 208.966965
-11.749518 5.192299 43.169182
-11.632176 5.172477 43.004379
-11.532500 5.160311 42.903233
-11.512196 5.183732 43.097954
-11.419530 5.174659 43.022526
-11.283093 5.145510 42.780174
-11.193271 5.137380 42.712585
-11.103536 5.129186 42.644455
-11.013524 5.120755 42.574364
-10.942488 5.121095 42.577190
-10.872189 5.121787 42.582943
-10.805240 5.124077 42.601978
-10.737278 5.125913 42.617249
-10.672718 5.129410 42.646317
-10.608300 5.133022 42.676353
-10.540468 5.135021 42.692970
-10.475883 5.138640 42.723057
-10.445167 5.159037 42.892643
-10.415035 5.180009 43.067005
-10.352979 5.185287 43.110882
-10.314007 5.202282 43.252182
-10.255562 5.209628 43.313255
-10.216400 5.226944 43.457226
-10.152318 5.231669 43.496506
-10.086802 5.235718 43.530170
-10.044989 5.252220 43.667370
-9.991293 5.262707 43.754559
-9.921168 5.264631 43.770557
-9.847927 5.264919 43.772949
-9.820380 5.289824 43.980015
-9.968747 5.410586 44.984043
-10.352873 5.662140 47.075481
-10.520642 5.798337 48.207832
-10.573628 5.872900 48.827755
-10.579964 5.922519 49.240292
-10.595885 5.978330 49.704311
-10.677464 6.072372 50.486183
-10.812780 6.198731 51.536739
-10.928892 6.316038 52.512039
-11.444685 6.668132 55.439373
-13.146047 7.722468 64.205208
-15.193664 8.999399 74.821716
-17.019322 10.165137 84.513756
-17.938633 10.804652 89.830727
-18.028527 10.951234 91.049423
-17.555174 10.755256 89.420052
-17.613263 10.884295 90.492889
-17.919206 11.170090 92.869011
-18.049792 11.350649 94.370193
-18.179865 11.534093 95.895363
-18.173303 11.633363 96.720703
-17.964106 11.603544 96.472778
-17.904298 11.670555 97.029915
-17.766370 11.687411 97.170059
-17.568459 11.664754 96.981689
-17.138963 11.486466 95.499382
-16.830648 11.386781 94.670593
-16.616790 11.349704 94.362335
-16.395438 11.306742 94.005150
-16.148639 11.245222 93.493668
-15.858285 11.151861 92.717453
-15.502964 11.010500 91.542168
-12.251856 8.788979 73.072266
-10.395991 7.533391 62.633209
-10.271386 7.519459 62.517376
-10.173789 7.525214 62.565224
-10.077078 7.531752 62.619583
-9.975164 7.534499 62.642418
-9.872140 7.536457 62.658703
-9.807345 7.567957 62.920593
-10.235283 7.984527 66.383987
-13.817635 10.898257 90.608971
-13.852286 11.047699 91.851440
-13.652831 11.011701 91.552155
-13.445421 10.968391 91.192070
-13.246160 10.930803 90.879562
-13.044032 10.889942 90.539841
-12.892245 10.890640 90.545639
-12.742594 10.893180 90.566757
-12.592838 10.895690 90.587631
-12.450692 10.904927 90.664429
-12.389428 10.986115 91.339432
-12.246804 10.996294 91.424057
-12.181454 11.077000 92.095055
-12.028828 11.079402 92.115021
-11.922110 11.124704 92.491669
-11.772187 11.130358 92.538673
-11.653938 11.166512 92.839264
-11.499734 11.168730 92.857704
-11.346315 11.171783 92.883087
-11.197999 11.180015 92.951530
-11.043436 11.182156 92.969330
-10.888848 11.184334 92.987434
-10.734100 11.186408 93.004677
-10.579336 11.188526 93.022285
-10.424470 11.190599 93.039520
-10.272026 11.195374 93.079224
-10.240894 11.334565 94.236473
-10.473270 11.774387 97.893181
-10.564503 12.067070 100.326576
-10.457572 12.139247 100.926659
-10.435761 12.314253 102.381676
-10.475687 12.569219 104.501480
-10.599147 12.934847 107.541344
-10.855946 13.478755 112.063431
-11.316290 14.299121 118.884026
-12.089704 15.551788 129.298798
-13.271515 17.385441 144.543930
-14.518785 19.375031 161.085541
-15.394688 20.935430 174.058823
-15.626525 21.663571 180.112640
-15.325167 21.666733 180.138931
-14.512581 20.932639 174.035614
-13.176189 19.397141 161.269363
-11.836612 17.792164 147.925461
-11.240903 17.260318 143.503647
-10.882913 17.078123 141.988861
-10.574360 16.967058 141.065460
-10.278325 16.871430 140.270401
-10.028562 16.849041 140.084259
-9.915462 17.060719 141.844162
-9.791193 17.263163 143.527298
-10.219089 18.474068 153.594864
-11.889082 22.051754 183.340027
-12.834867 24.441294 203.206848
-12.697584 24.842844 206.545364
-12.322817 24.789297 206.100174
-11.795341 24.416536 203.001007
-11.126067 23.719206 197.203354
-10.527850 23.135074 192.346832
-9.554425 21.663101 180.108734
-7.693573 18.016384 149.789642
-6.624473 16.039190 133.351089
-5.945547 14.900976 123.887894
-5.489539 14.258919 118.549782
-5.188385 13.985779 116.278870
-4.897533 13.720052 114.069595
-4.627604 13.493617 112.186996
-4.371481 13.289859 110.492935
-4.147112 13.168800 109.486443
-3.918205 13.021383 108.260811
-3.695092 12.879758 107.083328
-3.488769 12.785120 106.296501
-3.300884 12.751459 106.016640
-3.112055 12.710090 105.672691
-2.934066 12.710655 105.677391
-2.746988 12.669378 105.334213
-2.568218 12.663360 105.284172
-2.390607 12.662587 105.277748
-2.228240 12.748908 105.995430
-2.068017 12.863613 106.949097
-1.909117 13.009247 108.159904
-1.735407 13.074052 108.698700
-1.562924 13.164498 109.450676
-1.383986 13.217499 109.891335
-1.204443 13.280222 110.412819
-1.021588 13.322661 110.765656
-0.844158 13.470671 111.996223
-0.660973 13.585640 112.952087
-0.474621 13.702208 113.921242
-0.284833 13.810632 114.822685
-0.092619 14.011640 116.493881
0.105043 14.187524 117.956192
0.308682 14.412266 119.824715
0.518635 14.637473 121.697105
0.726439 14.691533 122.146568
0.931745 14.682367 122.070358
1.138519 14.695455 122.179176
1.349752 14.753278 122.659920
1.563335 14.818009 123.198097
1.786092 14.944321 124.248268
2.023830 15.156314 126.010788
2.257512 15.300548 127.209961
2.509722 15.534439 129.154556
2.770542 15.780029 131.196411
3.041187 16.041142 133.367325
3.349012 16.448916 136.757584
3.674850 16.886947 140.399414
4.048872 17.479995 145.330063
5.638982 22.956010 190.858078
6.227347 23.982973 199.396332
6.518425 23.818466 198.028610
6.851809 23.817042 198.016769
7.185131 23.815546 198.004333
7.518393 23.813990 197.991394
7.851588 23.812368 197.977905
8.184708 23.810657 197.963684
8.557299 23.919409 198.867859
8.920160 23.993790 199.486267
9.255675 23.991885 199.470428
9.591102 23.989892 199.453857
9.959254 24.067116 200.095901
10.338450 24.165095 200.910507
10.786235 24.412094 202.964081
10.123029 22.206741 184.628601
7.909318 16.833065 139.951431
8.048881 16.633974 138.296173
8.231133 16.531829 137.446930
8.426060 16.460037 136.850052
8.621445 16.392943 136.292221
8.835366 16.363661 136.048767
9.093559 16.415779 136.482086
9.347517 16.457870 136.832031
9.660212 16.598861 138.004242
10.098871 16.944570 140.878494
10.621385 17.411862 144.763596
11.186194 17.925943 149.037704
11.842152 18.560300 154.311798
12.390878 19.002934 157.991898
12.689371 19.051256 158.393646
12.479450 18.350004 152.563385
11.757681 16.939635 140.837463
11.433335 16.146338 134.241928
11.447306 15.852336 131.797577
11.488026 15.605865 129.748398
11.600850 15.464724 128.574936
11.723125 15.341127 127.547340
11.920191 15.318091 127.355820
12.103877 15.278981 127.030655
12.304913 15.262751 126.895721
12.547884 15.298203 127.190468
12.770488 15.308048 127.272324
12.982757 15.305385 127.250183
13.287635 15.410212 128.121719
13.603979 15.524769 129.074158
14.019746 15.747396 130.925095
14.418966 15.944824 132.566528
7.462105 8.125841 67.558884
4.648027 4.985378 41.448826
4.672394 4.937299 41.049095
4.693341 4.887063 40.631432
4.723606 4.847835 40.305286
4.743791 4.799522 39.903603
4.781767 4.770307 39.660709
4.828513 4.750527 39.496258
4.883708 4.739483 39.404438
4.940349 4.730121 39.326603
5.015294 4.738300 39.394600
5.089026 4.745134 39.451416
5.166006 4.754781 39.531628
5.240280 4.761724 39.589348
5.347385 4.797949 39.890530
5.459848 4.838023 40.223701
5.906773 5.169848 42.982521
13.667534 11.817433 98.251068
15.470693 13.216364 109.881897
16.212711 13.686404 113.789848
16.900473 14.100187 117.230072
17.226994 14.206503 118.113991
17.423039 14.204020 118.093346
17.645819 14.223143 118.252335
17.891879 14.260393 118.562035
18.024282 14.207233 118.120056
18.044611 14.067859 116.961288
18.075955 13.939993 115.898201
18.217326 13.898805 115.555763
18.682535 14.102946 117.253006
17.861939 13.342354 110.929382
16.088928 11.893463 98.883194
17.233466 12.608919 104.831551
17.812225 12.900100 107.252449
17.959228 12.875881 107.051094
18.134552 12.872247 107.020882
18.217677 12.803885 106.452515
18.341010 12.764840 106.127892
18.514790 12.761320 106.098625
18.691893 12.760136 106.088776
18.818956 12.725137 105.797798
18.433628 12.347576 102.658722
18.313401 12.152961 101.040680
19.355954 12.726456 105.808762
19.810039 12.906096 107.302299
19.899614 12.847158 106.812286
19.967673 12.775511 106.216606
20.094429 12.742358 105.940971
20.321437 12.772802 106.194084
20.617747 12.845893 106.801765
20.785292 12.838185 106.737686
21.047871 12.888805 107.158546
21.271040 12.914636 107.373306
21.432406 12.902824 107.275101
21.606066 12.898549 107.239555
21.779551 12.894242 107.203743
21.880605 12.847475 106.814926
22.053168 12.843118 106.778702
22.212557 12.831221 106.679787
22.466525 12.873711 107.033051
22.644890 12.872547 107.023369
22.763668 12.837796 106.734451
22.701378 12.702276 105.607727
22.811632 12.664659 105.294975
23.097844 12.724557 105.792976
23.169649 12.666326 105.308838
23.314992 12.648877 105.163765
23.488619 12.646920 105.147491
23.672238 12.650332 105.175858
23.845426 12.648160 105.157799
24.091601 12.684448 105.459503
24.521710 12.816339 106.556053
25.076054 13.010771 108.172577
25.474106 13.121889 109.096420
25.799194 13.194099 109.696785
26.014196 13.209383 109.823853
26.189195 13.204282 109.781441
26.020803 13.027333 108.310272
25.764688 12.809237 106.497009
48.536617 23.963625 199.235474
49.516274 24.279314 201.860138
49.470882 24.091512 200.298737
49.761922 24.068982 200.111420
50.268875 24.150486 200.789047
50.715198 24.201966 201.217056
51.051954 24.200822 201.207550
51.401371 24.205657 201.247742
51.909649 24.284747 201.905304
52.402896 24.355820 202.496216
52.795411 24.379459 202.692749
53.557429 24.572323 204.296234
54.105360 24.665126 205.067810
54.248580 24.573426 204.305405
-11.427859 5.122816 41.987366
-11.380978 5.133593 42.075695
-11.293750 5.126192 42.015034
-11.248467 5.137857 42.110638
-11.179913 5.138972 42.119778
-11.071149 5.121501 41.976582
-10.965748 5.105370 41.844376
-10.897237 5.106318 41.852139
-10.831140 5.108416 41.869335
-10.764964 5.110504 41.886448
-10.698705 5.112579 41.903461
-10.632363 5.114643 41.920376
-10.565942 5.116696 41.937199
-10.499193 5.118616 41.952942
-10.453015 5.130660 42.051651
-10.404445 5.141686 42.142021
-10.339254 5.144593 42.165852
-10.310431 5.165762 42.339352
-10.248978 5.170763 42.380344
-10.217316 5.190971 42.545967
-10.154436 5.195491 42.583015
-10.118961 5.214197 42.736336
-10.057294 5.219578 42.780437
-10.006959 5.230961 42.873734
-9.952170 5.240164 42.949162
-9.883353 5.242061 42.964710
-9.816737 5.245162 42.990131
-9.747034 5.246648 43.002308
-9.677345 5.248164 43.014732
-9.622706 5.257926 43.094742
-9.592102 5.281069 43.284428
-9.555121 5.301030 43.448029
-9.531482 5.328757 43.675285
-9.500949 5.353033 43.874252
-9.476871 5.381354 44.106377
-9.423385 5.393292 44.204224
-9.388658 5.416243 44.392330
-9.353669 5.439409 44.582207
-9.306052 5.455548 44.714485
-9.233778 5.457378 44.729485
-9.161430 5.459194 44.744366
-9.116816 5.477703 44.896072
-9.078079 5.500083 45.079502
-9.150326 5.590650 45.821800
-9.380215 5.779894 47.372875
-9.573259 5.949490 48.762905
-9.747583 6.110289 50.080837
-9.928987 6.278374 51.458485
-10.039252 6.404042 52.488480
-10.100297 6.500268 53.277164
-10.226865 6.640767 54.428719
-10.651677 6.979227 57.202782
-11.122750 7.354458 60.278233
-12.487086 8.332686 68.295937
-15.007675 10.107871 82.845612
-16.988846 11.549683 94.662918
-16.923658 11.614450 95.193764
-16.422227 11.378205 93.257462
-16.322368 11.418314 93.586197
-16.004219 11.305009 92.657539
-14.796439 10.554864 86.509239
-11.742786 8.459949 69.339005
-10.433879 7.592532 62.229523
-10.297048 7.569056 62.037106
-10.195177 7.571058 62.053520
-10.092323 7.572366 62.064240
-9.995027 7.577914 62.109715
-9.892901 7.579880 62.125824
-9.786003 7.578191 62.111984
-9.687847 7.583310 62.153938
-9.673086 7.654532 62.737686
-13.035978 10.429686 85.483261
-13.850975 11.205598 91.842751
-13.699545 11.208362 91.865402
-13.445886 11.126594 91.195221
-13.292093 11.126531 91.194702
-13.084295 11.080730 90.819313
-12.889508 11.044995 90.526421
-12.739888 11.047569 90.547523
-12.590159 11.050112 90.568359
-12.440348 11.052644 90.589111
-12.344438 11.103721 91.007751
-12.235391 11.144119 91.338860
-12.090136 11.152148 91.404663
-11.985147 11.198005 91.780518
-11.873570 11.238827 92.115097
-11.729991 11.250037 92.206978
-11.665799 11.338710 92.933754
-11.588935 11.417311 93.577980
-11.404416 11.390558 93.358711
-11.283414 11.427384 93.660538
-11.203463 11.507419 94.316521
-11.036876 11.499492 94.251549
-10.836602 11.455721 93.892792
-10.566950 11.336224 92.913376
-10.565038 11.504684 94.294106
-10.482831 11.589518 94.989418
-10.866391 12.199910 99.992279
-11.895480 13.565701 111.186508
-11.859559 13.741231 112.625175
-11.229714 13.223119 108.378654
-11.036739 13.210797 108.277657
-10.753651 13.088384 107.274345
-10.766720 13.328403 109.241577
-10.889625 13.715111 112.411087
-10.741731 13.768412 112.847954
-10.566547 13.788025 113.008705
-10.811054 14.366057 117.746338
-11.353973 15.369662 125.972038
-12.306897 16.977115 139.146957
-13.462496 18.932045 155.169861
-14.040151 20.135587 165.034271
-13.666279 19.995576 163.886719
-12.934171 19.314826 158.307190
-12.068281 18.401410 150.820694
-11.342160 17.666386 144.796326
-10.888460 17.332681 142.061234
-10.430858 16.977619 139.151093
-10.239464 17.049479 139.740067
-9.967071 16.986676 139.225327
-9.909587 17.295942 141.760117
-10.128867 18.115484 148.477203
-10.886246 19.963322 163.622360
-13.492590 25.386011 208.067520
-14.713932 28.422736 232.956970
-14.216025 28.213873 231.245102
-13.197566 26.930994 220.730438
-11.630773 24.422293 200.168747
-8.991743 19.444942 159.373642
-6.241646 13.913444 114.036659
-4.898345 11.265999 92.337807
-4.812936 11.432836 93.705223
-5.796417 14.236231 116.682266
-6.460886 16.425526 134.626053
-5.671276 14.942934 122.474510
-5.124709 14.012898 114.851799
-4.925297 13.996362 114.716263
-4.627239 13.686691 112.178154
-4.368600 13.472197 110.420135
-4.118949 13.267562 108.742912
-3.903487 13.159123 107.854134
-3.689178 13.044168 106.911942
-3.478655 12.931479 105.988327
-3.277503 12.843310 105.265678
-3.097364 12.832106 105.173851
-2.910230 12.788796 104.818878
-2.733664 12.789333 104.823280
-2.557075 12.789831 104.827354
-2.387434 12.827734 105.138016
-2.213245 12.845320 105.282150
-2.051838 12.946618 106.112411
-1.887841 13.049364 106.954529
-1.720176 13.145771 107.744698
-1.539412 13.153024 107.804138
-1.367666 13.249582 108.595543
-1.185252 13.256656 108.653526
-1.009773 13.358066 109.484695
-0.834510 13.508310 110.716118
-0.655601 13.669120 112.034142
-0.470720 13.785130 112.984978
-0.282483 13.893724 113.875031
-0.091564 14.051343 115.166901
0.103834 14.225957 116.598061
0.307224 14.550616 119.259010
0.516200 14.778365 121.125679
0.725839 14.890617 122.045715
0.931544 14.890398 122.043915
1.137239 14.890137 122.041779
1.344111 14.903011 122.147293
1.560826 15.007100 123.000427
1.782880 15.132088 124.024849
2.007609 15.251167 125.000832
2.237848 15.385508 126.101913
2.479628 15.569005 127.605881
2.727965 15.761090 129.180237
2.992270 16.010215 131.222107
3.292473 16.403898 134.448792
3.599858 16.780357 137.534302
3.900534 17.081880 140.005630
5.081250 20.983144 171.980972
6.257469 24.445728 200.360825
6.596687 24.451263 200.406189
6.932648 24.444773 200.352997
7.217883 24.268334 198.906876
7.568473 24.317544 199.310211
7.907666 24.327510 199.391891
8.243166 24.325767 199.377609
8.582710 24.335625 199.458405
8.918231 24.333762 199.443130
9.253676 24.331835 199.427338
9.636185 24.449457 200.391388
10.015559 24.551426 201.227142
10.411090 24.685026 202.322144
10.636472 24.419515 200.145981
8.691452 19.340646 158.518814
7.779698 16.795433 137.657867
7.961851 16.690867 136.800827
8.142527 16.589177 135.967361
8.352839 16.551779 135.660843
8.535962 16.463934 134.940857
8.758239 16.454209 134.861145
8.988865 16.460263 134.910767
9.231893 16.488170 135.139496
9.508818 16.573814 135.841446
10.079248 17.154980 140.604767
11.996499 19.949082 163.505646
13.152822 21.380750 175.239807
13.551445 21.544889 176.585114
13.597925 21.154149 173.382553
13.309075 20.269157 166.129028
12.556818 18.729433 153.509216
11.602478 16.956548 138.978394
11.344088 16.250811 133.194061
11.369052 15.970501 130.896606
11.472851 15.809500 129.577011
11.583865 15.664270 128.386688
11.706555 15.539866 127.367058
11.888472 15.497148 127.016930
12.052978 15.433648 126.496475
12.251212 15.414791 126.341919
12.462204 15.412358 126.321976
12.679174 15.417275 126.362282
12.935594 15.469206 126.787918
13.182729 15.508527 127.110199
13.500341 15.628175 128.090851
13.907105 15.845635 129.873184
14.423011 16.178783 132.603714
10.078802 11.133204 91.249397
4.664086 5.074583 41.592033
4.679487 5.015943 41.111412
4.693322 4.957361 40.631271
4.714515 4.908125 40.227722
4.742777 4.867539 39.895077
4.780747 4.837913 39.652252
4.826888 4.817258 39.482960
4.873139 4.797273 39.319164
4.937793 4.795698 39.306252
5.004132 4.795780 39.306923
5.079045 4.803969 39.374043
5.154596 4.812542 39.444313
5.239137 4.829184 39.580711
5.337216 4.857729 39.814671
5.446122 4.895296 40.122578
5.859023 5.201840 42.635056
13.473155 11.816982 96.853745
15.929584 13.804191 113.141205
16.178114 13.853705 113.547028
16.640820 14.083321 115.428993
17.010099 14.229475 116.626892
17.209282 14.231623 116.644501
17.394911 14.222642 116.570892
17.526845 14.170448 116.143105
17.716772 14.165777 116.104820
17.769804 14.052948 115.180054
17.931089 14.027242 114.969360
18.131420 14.032304 115.010849
18.422720 14.106917 115.622391
18.152088 13.754181 112.731316
15.623518 11.715596 96.022766
16.763049 12.441208 101.969994
17.910870 13.158182 107.846420
18.000710 13.091315 107.298363
18.113494 13.042297 106.896606
18.163416 12.949429 106.135445
18.337155 12.945785 106.105583
18.458706 12.905724 105.777237
18.684232 12.938430 106.045296
18.829303 12.915330 105.855965
18.526038 12.588029 103.173363
18.150164 12.217940 100.140053
19.233260 12.827739 105.138054
19.649798 12.985897 106.434341
19.672806 12.883475 105.594879
19.688386 12.778069 104.730957
19.773681 12.719381 104.249939
20.008188 12.756862 104.557137
20.302051 12.831201 105.166435
20.586065 12.898083 105.714607
20.841152 12.945849 106.106102
21.103405 12.997215 106.527107
21.354679 13.041010 106.886055
21.517355 13.030418 106.799248
21.690131 13.026068 106.763596
21.787981 12.977163 106.362762
21.953974 12.969313 106.298416
22.127390 12.965938 106.270760
22.303509 12.964189 106.256424
22.570528 13.014883 106.671921
22.922100 13.113148 107.477310
22.188259 12.593803 103.220680
22.192523 12.498219 102.437263
22.967594 12.834858 105.196404
23.191813 12.860867 105.409576
23.244954 12.792332 104.847855
23.299001 12.725325 104.298660
23.478088 12.727105 104.313248
23.640891 12.720097 104.255806
23.812593 12.717945 104.238167
24.224741 12.843301 105.265610
24.660064 12.979033 106.378090
25.214791 13.175196 107.985870
25.612107 13.286886 108.901299
25.986363 13.385110 109.706352
26.366583 13.484995 110.525024
26.101940 13.255982 108.648003
24.931772 12.573490 103.054192
46.294395 23.185462 190.031494
49.208676 24.475662 200.606171
49.435110 24.420481 200.153900
49.695338 24.382629 199.843658
50.015000 24.374252 199.774994
50.328412 24.362960 199.682449
50.668748 24.364766 199.697250
50.984465 24.354788 199.615463
51.324790 24.356618 199.630463
51.816938 24.430004 200.231949
52.132674 24.419806 200.148361
52.678722 24.516927 200.944382
52.998733 24.508281 200.873520
53.495781 24.581092 201.470291
-11.345149 5.157878 41.683479
-11.283203 5.161681 41.714218
-11.196105 5.153955 41.651775
-11.129154 5.155463 41.663967
-11.042791 5.147942 41.603180
-10.954437 5.139389 41.534065
-10.869104 5.132154 41.475590
-10.803606 5.134251 41.492538
-10.738077 5.136360 41.509586
-10.670579 5.137550 41.519196
-10.586076 5.130513 41.462330
-10.539402 5.141838 41.553856
-10.475149 5.144682 41.576836
-10.408972 5.146612 41.592434
-10.366471 5.160354 41.703491
-10.317051 5.170817 41.788044
-10.254471 5.174782 41.820087
-10.222347 5.194277 41.977638
-10.165587 5.201439 42.035519
-10.129507 5.219357 42.180321
-10.086397 5.233880 42.297691
-10.033774 5.243639 42.376556
-9.971034 5.248212 42.413517
-9.922838 5.260562 42.513325
-9.867273 5.269157 42.582783
-9.799042 5.271064 42.598194
-9.730641 5.272908 42.613094
-9.664049 5.275766 42.636192
-9.601689 5.280994 42.678448
-9.561732 5.298717 42.821674
-9.495596 5.302092 42.848946
-9.463465 5.324651 43.031258
-9.420031 5.341150 43.164597
-9.389037 5.365014 43.357452
-9.365401 5.393490 43.587582
-9.321550 5.410682 43.726524
-9.287203 5.433710 43.912621
-9.242960 5.451271 44.054539
-9.190856 5.464442 44.160984
-9.145297 5.481751 44.300869
-9.090795 5.493941 44.399384
-9.044380 5.511262 44.539360
-8.992329 5.525409 44.653690
-8.938111 5.538452 44.759098
-8.899389 5.561401 44.944561
-8.853304 5.580103 45.095703
-8.787551 5.586626 45.148415
-8.741051 5.605609 45.301826
-8.700903 5.629037 45.491158
-8.633580 5.635143 45.540508
-8.593902 5.659565 45.737873
-8.553549 5.683981 45.935192
-8.523820 5.715967 46.193687
-8.472739 5.734092 46.340168
-8.425461 5.755153 46.510368
-8.421812 5.806690 46.926868
-8.840259 6.152992 49.725510
-10.944830 7.690732 62.152782
-15.614749 11.078238 89.528976
-15.458545 11.074445 89.498322
-11.635153 8.417526 68.026382
-10.286136 7.515637 60.737755
-10.293449 7.596590 61.391975
-10.215251 7.615439 61.544300
-10.111415 7.615365 61.543701
-10.010359 7.617405 61.560188
-9.909066 7.619306 61.575550
-9.807818 7.621281 61.591515
-9.706523 7.623262 61.607525
-9.605147 7.625222 61.623363
-9.506650 7.629535 61.658218
-12.087896 9.808335 79.266228
-13.881629 11.389694 92.046013
-13.705253 11.372082 91.903679
-13.443458 11.282381 91.178757
-13.289237 11.281929 91.175102
-13.087458 11.240621 90.841270
-12.886732 11.199248 90.506920
-12.737145 11.201861 90.528030
-12.587448 11.204438 90.548859
-12.437650 11.206987 90.569458
-12.287745 11.209503 90.589790
-12.141841 11.215777 90.640495
-11.995936 11.222211 90.692490
-11.847871 11.226763 90.729279
-11.783058 11.311354 91.412903
-11.718879 11.398804 92.119629
-11.592615 11.427401 92.350739
-11.631884 11.622173 93.924789
-11.728179 11.880083 96.009094
-11.518201 11.830630 95.609444
-10.451876 10.887717 87.989273
-9.367330 9.898405 79.994133
-7.839219 8.404639 67.922234
-6.382959 6.944769 56.124268
-5.536395 6.114312 49.412918
-5.259832 5.897604 47.661591
-4.999292 5.692417 46.003368
-4.801291 5.553096 44.877445
-4.666096 5.483119 44.311924
-4.599350 5.492608 44.388603
-4.619506 5.607906 45.320389
-4.668208 5.762317 46.568268
-4.732725 5.941867 48.019302
-4.835674 6.176755 49.917549
-5.065179 6.584477 53.212563
-5.778107 7.646654 61.796570
-6.240615 8.410346 67.968353
-6.111353 8.390170 67.805305
-5.761194 8.060180 65.138481
-5.427135 7.740331 62.553616
-4.925508 7.164080 57.896641
-4.623324 6.860486 55.443134
-4.519307 6.844488 55.313850
-4.438865 6.864274 55.473747
-4.394315 6.941607 56.098721
-4.427906 7.148496 57.770691
-4.509959 7.444684 60.164345
-4.701725 7.939771 64.165398
-4.831256 8.350603 67.485542
-4.384920 7.761887 62.727821
-3.827813 6.943153 56.111214
-3.528506 6.562396 53.034115
-3.263940 6.228138 50.332806
-3.119769 6.111903 49.393452
-3.037610 6.114113 49.411312
-2.942674 6.090003 49.216469
-2.838712 6.045276 48.855000
-2.749991 6.031300 48.742054
-2.668504 6.032818 48.754326
-2.592560 6.047365 48.871883
-2.524559 6.081998 49.151775
-2.456701 6.119340 49.453548
-2.405480 6.202202 50.123199
-2.485862 6.642766 53.683628
-2.823694 7.830568 63.282875
-4.618265 13.310012 107.565094
-4.643064 13.928301 112.561806
-4.365689 13.654187 110.346550
-4.087436 13.352808 107.910950
-3.898853 13.329936 107.726112
-3.664021 13.138982 106.182915
-3.477892 13.112030 105.965096
-3.273770 13.010650 105.145790
-3.074954 12.919959 104.412872
-2.896854 12.910584 104.337112
-2.721099 12.911127 104.341499
-2.545322 12.911629 104.345551
-2.370239 12.915985 104.380760
-2.209756 13.006984 105.116165
-2.047796 13.104392 105.903374
-1.878218 13.167000 106.409340
-1.706217 13.224050 106.870392
-1.526659 13.229084 106.911072
-1.355774 13.320672 107.651245
-1.175052 13.328990 107.718468
-0.997220 13.379115 108.123550
-0.827627 13.586933 109.803032
-0.652812 13.804015 111.557388
-0.470135 13.963281 112.844498
-0.282142 14.073823 113.737846
-0.091143 14.185127 114.637352
0.102962 14.306617 115.619171
0.307143 14.753102 119.227448
0.519668 15.088665 121.939308
0.725680 15.098519 122.018944
0.931339 15.098296 122.017143
1.136989 15.098031 122.014999
1.343170 15.103815 122.061745
1.560397 15.215780 122.966591
1.775430 15.282598 123.506584
2.005928 15.454544 124.896164
2.233885 15.576107 125.878578
2.468232 15.717269 127.019379
2.713348 15.899005 128.488083
2.966721 16.098670 130.101685
3.242248 16.382795 132.397842
3.548114 16.773756 135.557404
3.840548 17.057749 137.852493
4.173876 17.480606 141.269821
5.849869 23.177538 187.309677
6.718182 25.254808 204.097168
7.032865 25.149889 203.249268
7.320335 24.961922 201.730209
7.628108 24.856802 200.880676
7.937891 24.766886 200.154022
8.274673 24.765110 200.139664
8.611386 24.763271 200.124802
8.950064 24.767011 200.155029
9.299952 24.800372 200.424637
9.662122 24.863001 200.930771
10.076229 25.050507 202.446106
10.527010 25.313917 204.574860
10.762949 25.060380 202.525894
7.737505 17.462103 141.120285
7.728199 16.920910 136.746628
7.926795 16.853083 136.198486
8.121784 16.781624 135.620987
8.301123 16.682625 134.820923
8.511037 16.648709 134.546829
8.705511 16.587136 134.049225
8.962817 16.645367 134.519821
9.204315 16.672091 134.735794
9.487247 16.770771 135.533279
10.033929 17.320085 139.972565
12.466008 21.023872 169.904785
13.736389 22.646103 183.014877
13.733204 22.143560 178.953568
13.418296 21.170797 171.092163
12.570158 19.415361 156.905579
11.345941 17.163366 138.706039
11.156279 16.535715 133.633667
11.253909 16.350301 132.135239
11.355627 16.177907 130.742035
11.481750 16.046185 129.677521
11.548443 15.837880 127.994102
11.702335 15.754609 127.321144
11.865602 15.686731 126.772591
12.033336 15.627057 126.290329
12.244184 15.624473 126.269447
12.454983 15.621915 126.248779
12.665639 15.619269 126.227394
12.876169 15.616556 126.205467
13.086670 15.613896 126.183975
13.389274 15.719455 127.037048
13.669378 15.795690 127.653145
13.988745 15.914229 128.611115
12.503051 14.006970 113.197571
4.691522 5.176836 41.836689
4.678473 5.085989 41.102509
4.692445 5.026738 40.623672
4.711444 4.974501 40.201515
4.740933 4.934663 39.879566
4.779714 4.905475 39.643681
4.825761 4.884447 39.473743
4.872087 4.864269 39.310673
4.936726 4.862671 39.297760
5.001890 4.861626 39.289314
5.067012 4.860568 39.280762
5.143017 4.869842 39.355709
5.219450 4.879279 39.431976
5.324408 4.914810 39.719124
5.445225 4.963916 40.115974
5.866791 5.282620 42.691582
12.137905 10.796871 87.255104
15.334740 13.477206 108.916275
15.832305 13.749887 111.119949
16.440496 14.111143 114.039444
16.931997 14.365049 116.091393
17.123471 14.361520 116.062874
17.315043 14.358153 116.035660
17.375239 14.247136 115.138474
17.549961 14.231442 115.011642
17.615941 14.128875 114.182747
17.798576 14.121076 114.119720
18.013356 14.138675 114.261948
18.343179 14.245244 115.123184
17.851919 13.718606 110.867149
15.403010 11.714076 94.667511
16.056026 12.085498 97.669159
17.688485 13.179131 106.507378
17.914511 13.213428 106.784546
17.985805 13.134050 106.143051
18.029116 13.036003 105.350685
18.190581 13.024467 105.257454
18.385618 13.036958 105.358406
18.680257 13.119162 106.022736
18.939855 13.175431 106.477478
18.213124 12.550950 101.430717
17.613019 12.024532 97.176460
18.830130 12.737009 102.934357
19.492320 13.064546 105.581352
19.391970 12.879695 104.087479
19.432696 12.791018 103.370834
19.556999 12.758441 103.107559
19.837297 12.827308 103.664108
20.164449 12.925004 104.453644
20.457547 12.999370 105.054634
20.752003 13.073316 105.652229
21.045713 13.145537 106.235886
21.256710 13.165311 106.395691
21.465915 13.183654 106.543930
21.601019 13.156560 106.324966
21.772912 13.152134 106.289200
21.893864 13.117261 106.007370
21.952352 13.045831 105.430107
22.221516 13.099743 105.865799
22.588139 13.209791 106.755157
22.419513 13.007554 105.120773
19.977409 11.499785 92.935715
20.185485 11.529158 93.173088
22.788755 12.915555 104.377281
23.248499 13.075171 105.667221
23.240095 12.971071 104.825935
23.286532 12.898920 104.242844
23.454074 12.894429 104.206551
23.562293 12.857633 103.909187
23.703581 12.839293 103.760971
24.028969 12.920211 104.414909
24.555665 13.107407 105.927734
25.012578 13.254920 107.119865
25.510984 13.422149 108.471329
25.886791 13.522954 109.285988
26.342666 13.663866 110.424767
26.182874 13.485696 108.984886
25.249113 12.914147 104.365906
46.538991 23.638571 191.035522
49.311971 24.874941 201.027267
49.370582 24.734543 199.892639
49.315824 24.539635 198.317490
49.675439 24.552157 198.418686
49.944084 24.519850 198.157593
50.273712 24.517713 198.140320
50.588710 24.508516 198.065994
50.901825 24.498533 197.985321
51.214298 24.488373 197.903214
51.508127 24.469488 197.750595
51.838060 24.467887 197.737656
52.152417 24.459002 197.665848
52.852477 24.629972 199.047546
-11.256890 5.189329 41.359203
-11.233671 5.210897 41.531097
-11.083412 5.173436 41.232536
-11.017927 5.175323 41.247570
-10.952943 5.177470 41.264683
-10.866683 5.169523 41.201344
-10.780730 5.161620 41.138363
-10.715762 5.163728 41.155163
-10.650764 5.165849 41.172066
-10.585683 5.167957 41.188866
-10.519493 5.169548 41.201546
-10.455284 5.172140 41.222202
-10.389967 5.174215 41.238739
-10.346507 5.187275 41.342834
-10.298058 5.197995 41.428272
-10.236744 5.202323 41.462769
-10.204773 5.221726 41.617409
-10.144646 5.226890 41.658566
-10.112878 5.246839 41.817562
-10.051580 5.251640 41.855824
-10.018570 5.271393 42.013256
-9.952166 5.273732 42.031895
-9.921818 5.295346 42.204166
-9.856278 5.298357 42.228157
-9.788743 5.300329 42.243881
-9.726707 5.305331 42.283741
-9.689890 5.324263 42.434631
-9.622956 5.326805 42.454895
-9.578691 5.342029 42.576225
-9.529553 5.354743 42.677563
-9.490088 5.373128 42.824093
-9.436153 5.383540 42.907070
-9.396621 5.402392 43.057327
-9.356890 5.421423 43.209003
-9.323661 5.444550 43.393322
-9.289497 5.467491 43.576168
-9.245296 5.484844 43.714474
-9.193913 5.498181 43.820766
-9.149420 5.515887 43.961887
-9.104865 5.533845 44.105015
-9.051907 5.546950 44.209457
-9.005940 5.564591 44.350060
-8.953007 5.578188 44.458424
-8.898377 5.590948 44.560123
-8.852931 5.609745 44.709934
-8.797196 5.622288 44.809910
-8.747866 5.639178 44.944523
-8.695126 5.654146 45.063816
-8.636402 5.665452 45.153923
-8.588834 5.684342 45.304478
-8.522663 5.691149 45.358730
-8.481332 5.714816 45.547359
-8.419130 5.724725 45.626331
-8.366079 5.741096 45.756809
-8.304276 5.751709 45.841396
-8.261191 5.775608 46.031876
-8.233233 5.810637 46.311054
-8.196526 5.840102 46.545895
-8.252635 5.936908 47.317444
-8.827277 6.412274 51.106133
-10.001308 7.336706 58.473904
-10.124893 7.501290 59.785645
-10.218704 7.646903 60.946182
-10.131071 7.658315 61.037136
-10.031374 7.660747 61.056526
-9.928876 7.661070 61.059097
-9.828407 7.662981 61.074329
-9.727982 7.664967 61.090157
-9.629680 7.668686 61.119801
-9.528818 7.670425 61.133659
-9.424471 7.669367 61.125225
-10.412320 8.566906 68.278656
-13.866650 11.536528 91.946686
-13.697930 11.524971 91.854576
-13.436763 11.434479 91.133347
-13.237412 11.395106 90.819542
-13.033531 11.350867 90.466957
-12.883724 11.353231 90.485794
-12.638991 11.270999 89.830406
-12.489379 11.272628 89.843391
-12.340745 11.275190 89.863808
-12.192007 11.277720 89.883972
-12.045624 11.282520 89.922226
-11.894057 11.282524 89.922256
-11.747675 11.287510 89.961998
-11.684570 11.373687 90.648834
-11.552421 11.394051 90.811134
-11.622198 11.616794 92.586411
-10.653590 10.793572 86.025291
-5.884928 6.044523 48.175137
-5.401958 5.626086 44.840176
-5.235174 5.529752 44.072388
-5.121331 5.487370 43.734600
-5.029886 5.468099 43.581013
-4.957364 5.469132 43.589249
-4.873450 5.457440 43.496063
-4.791614 5.447754 43.418861
-4.703702 5.430753 43.283360
-4.630896 5.430930 43.284775
-4.541079 5.410844 43.124691
-4.468648 5.411158 43.127190
-4.396680 5.412052 43.134315
-4.321860 5.409407 43.113235
-4.246145 5.405532 43.082352
-4.182599 5.417283 43.176010
-4.124258 5.436310 43.327656
-4.055821 5.442478 43.376812
-4.002430 5.469431 43.591629
-3.960548 5.513415 43.942181
-3.907558 5.543316 44.180496
-3.858237 5.579686 44.470364
-3.802611 5.608198 44.697605
-3.745986 5.636359 44.922054
-3.676558 5.646022 44.999065
-3.622688 5.680486 45.273746
-3.568080 5.715252 45.550835
-3.509267 5.744664 45.785248
-3.439709 5.757413 45.886856
-3.372680 5.775078 46.027653
-3.301742 5.786725 46.120480
-3.227180 5.792430 46.165947
-3.156123 5.804861 46.265022
-3.087437 5.822394 46.404762
-3.021324 5.845818 46.591450
-2.961839 5.883659 46.893044
-2.905987 5.930988 47.270256
-2.849219 5.979065 47.653435
-2.784260 6.012243 47.917866
-2.706436 6.018794 47.970081
-2.635855 6.042351 48.157829
-2.564853 6.066410 48.349583
-2.496292 6.098011 48.601444
-2.421310 6.115539 48.741142
-2.348723 6.140559 48.940548
-2.274987 6.164289 49.129677
-2.198520 6.182130 49.271877
-2.138993 6.250877 49.819790
-2.364176 7.191263 57.314709
-4.185008 13.272151 105.779686
