ply
format ascii 1.0
comment generated by convert_depth_to_ply.py
element vertex 1611
property float x
property float y
property float z
end_header
3.982629 -1.544416 69.042404
4.070510 -1.540306 68.858658
4.168595 -1.540160 68.852112
4.266654 -1.540011 68.845451
4.364676 -1.539855 68.838516
4.462683 -1.539702 68.831650
4.560641 -1.539539 68.824348
4.658590 -1.539379 68.817207
4.756507 -1.539216 68.809914
4.854372 -1.539042 68.802170
4.952228 -1.538873 68.794609
5.050027 -1.538693 68.786568
5.147817 -1.538518 68.778717
5.259476 -1.542416 68.952980
5.424696 -1.561589 69.810112
5.523325 -1.561246 69.794785
5.579186 -1.549041 69.249168
5.673129 -1.547651 69.187019
5.754278 -1.542878 68.973640
5.850643 -1.542277 68.946762
5.928769 -1.536967 68.709412
6.026238 -1.536764 68.700302
6.123668 -1.536557 68.691055
6.221022 -1.536338 68.681267
6.318373 -1.536125 68.671738
6.415645 -1.535899 68.661667
6.512914 -1.535680 68.651855
6.610112 -1.535451 68.641609
6.707286 -1.535223 68.631416
6.802133 -1.534476 68.598045
6.898272 -1.534038 68.578461
6.994384 -1.533607 68.559174
7.095504 -1.534270 68.588821
7.192470 -1.534029 68.578056
7.289380 -1.533783 68.567062
7.439934 -1.544681 69.054253
7.591873 -1.555577 69.541359
7.639219 -1.545038 69.070198
7.736710 -1.544780 69.058662
7.834099 -1.544508 69.046516
7.926778 -1.543326 68.993675
7.997529 -1.537956 68.753624
8.089576 -1.536763 68.700264
8.186379 -1.536490 68.688087
8.255743 -1.531136 68.448700
8.351996 -1.530835 68.435249
8.448324 -1.530554 68.422714
8.544599 -1.530271 68.410049
8.640822 -1.529985 68.397255
8.736992 -1.529696 68.384331
8.832963 -1.529379 68.370155
8.929021 -1.529083 68.356956
9.025024 -1.528785 68.343620
9.120972 -1.528484 68.330170
9.216827 -1.528174 68.316307
9.312538 -1.527847 68.301682
9.444778 -1.533457 68.552490
9.550346 -1.534667 68.606552
9.674982 -1.538884 68.795090
9.771158 -1.538536 68.779510
9.900182 -1.543314 68.993149
9.963672 -1.537884 68.750381
10.058243 -1.537310 68.724724
10.116348 -1.531228 68.452812
10.172013 -1.524896 68.169762
10.267244 -1.524560 68.154732
10.362412 -1.524221 68.139565
10.457517 -1.523879 68.124275
10.552560 -1.523534 68.108864
10.707161 -1.531716 68.474625
10.826495 -1.534749 68.610252
11.124676 -1.562854 69.866669
12.566337 -1.749671 78.218216
12.817470 -1.768891 79.077423
12.849924 -1.757859 78.584251
13.010303 -1.764367 78.875183
13.127570 -1.764966 78.901993
13.295721 -1.772339 79.231575
13.407756 -1.772169 79.224007
13.444732 -1.762165 78.776772
13.344157 -1.734449 77.537712
13.427050 -1.730839 77.376350
-15.643114 -1.796063 85.674400
-15.550494 -1.799525 85.839508
-15.431590 -1.799975 85.861000
-15.288566 -1.797597 85.747559
-15.164129 -1.797384 85.737373
-15.014231 -1.794124 85.581886
-15.174403 -1.828167 87.205795
-13.418563 -1.630026 77.754227
-12.354393 -1.513297 72.186089
-12.221671 -1.509655 72.012375
-12.121707 -1.510032 72.030365
-11.996615 -1.507259 71.898064
-11.896536 -1.507607 71.914680
-11.719978 -1.498185 71.465240
-11.605373 -1.496586 71.388985
-11.505864 -1.496924 71.405067
-11.406288 -1.497258 71.421013
-11.306645 -1.497589 71.436821
-11.216790 -1.499235 71.515327
-11.185262 -1.508779 71.970581
-11.246933 -1.531188 73.039536
-11.384829 -1.564493 74.628197
-11.404171 -1.581982 75.462440
-11.426193 -1.600180 76.330536
-10.829098 -1.531189 73.039581
-10.428186 -1.488864 71.020615
-10.291180 -1.483755 70.776924
-10.186943 -1.483317 70.755997
-10.069272 -1.480893 70.640411
-9.949752 -1.478146 70.509369
-9.850840 -1.478436 70.523186
-9.751869 -1.478723 70.536858
-9.652840 -1.479006 70.550400
-9.553863 -1.479304 70.564606
-9.454763 -1.479589 70.578194
-9.355563 -1.479864 70.591324
-9.256306 -1.480137 70.604309
-9.156996 -1.480406 70.617165
-9.057768 -1.480695 70.630951
-8.958346 -1.480959 70.643517
-8.858871 -1.481219 70.655952
-8.759377 -1.481483 70.668518
-8.659827 -1.481743 70.680916
-8.560194 -1.481994 70.692924
-8.460572 -1.482254 70.705307
-8.407355 -1.490748 71.110497
-8.343125 -1.497474 71.431320
-8.231560 -1.495765 71.349800
-8.124617 -1.494864 71.306801
-8.023955 -1.495110 71.318535
-7.901938 -1.491332 71.138321
-7.746687 -1.481101 70.650307
-7.601859 -1.472619 70.245712
-7.502554 -1.472847 70.256569
-7.403179 -1.473067 70.267059
-7.290359 -1.470580 70.148468
-7.191110 -1.470801 70.158974
-7.077098 -1.467965 70.023705
-6.965176 -1.465487 69.905518
-6.851934 -1.462656 69.770462
-6.753072 -1.462856 69.779999
-6.654191 -1.463058 69.789627
-6.555241 -1.463250 69.798805
-6.456287 -1.463448 69.808228
-6.357257 -1.463634 69.817116
-6.258222 -1.463825 69.826225
-6.167801 -1.466070 69.933304
-6.068419 -1.466223 69.940628
-5.973450 -1.467466 69.999916
-5.884552 -1.470268 70.133583
-5.796938 -1.473494 70.287445
-5.707520 -1.476367 70.424484
-5.621957 -1.480358 70.614876
-5.559533 -1.490700 71.108177
-5.407153 -1.476857 70.447868
-5.291898 -1.472821 70.255341
-5.178459 -1.469144 70.079948
-5.075255 -1.468283 70.038879
-4.967254 -1.465972 69.928619
-4.867731 -1.466118 69.935623
-4.768161 -1.466257 69.942245
-4.668562 -1.466393 69.948708
-4.551593 -1.460959 69.689507
-4.449395 -1.460129 69.649918
-4.352588 -1.461071 69.694847
-4.253276 -1.461196 69.700829
-4.153939 -1.461319 69.706665
-4.060559 -1.463595 69.815231
-3.970202 -1.467102 69.982536
-3.863768 -1.464696 69.867790
-3.764124 -1.464805 69.872993
-3.671190 -1.467603 70.006432
-3.571321 -1.467707 70.011398
-3.471430 -1.467808 70.016220
-3.370431 -1.467432 69.998306
-3.249303 -1.458001 69.548431
-3.136816 -1.451975 69.260979
-3.007534 -1.437528 68.571831
-2.876573 -1.421277 67.796646
-2.762020 -1.412283 67.367599
-2.654123 -1.406164 67.075729
-2.554545 -1.404160 66.980110
-2.453783 -1.401323 66.844788
-2.363186 -1.404296 66.986603
-2.279269 -1.411657 67.337769
-2.193763 -1.418642 67.670921
-2.123946 -1.436884 68.541107
-2.053996 -1.456797 69.490990
-1.955571 -1.457513 69.525154
-1.861608 -1.461809 69.730072
-1.766652 -1.465768 69.918915
-1.670430 -1.469088 70.077271
-1.570250 -1.469129 70.079231
-1.470062 -1.469168 70.081078
-1.369866 -1.469203 70.082741
-1.268340 -1.467705 70.011299
-1.169279 -1.469048 70.075371
-1.067626 -1.467080 69.981491
-0.967235 -1.466618 69.959473
-0.865397 -1.463603 69.815643
-0.764577 -1.461748 69.727142
-0.663116 -1.457927 69.544861
-0.563657 -1.457937 69.545341
-0.464197 -1.457943 69.545670
-0.364734 -1.457947 69.545853
-0.265271 -1.457948 69.545891
-0.165807 -1.457945 69.545761
-0.066480 -1.460963 69.689713
0.033250 -1.463638 69.817284
0.133101 -1.463625 69.816704
0.232949 -1.463611 69.816002
0.332933 -1.464200 69.844093
0.434331 -1.469299 70.087364
0.534561 -1.469275 70.086197
0.634785 -1.469247 70.084877
0.735004 -1.469217 70.083420
0.835218 -1.469183 70.081810
0.935424 -1.469146 70.080040
1.038315 -1.472924 70.260254
1.144724 -1.480585 70.625702
1.245693 -1.480538 70.623459
1.342872 -1.476332 70.422844
1.436337 -1.468914 70.069000
1.535296 -1.467717 70.011864
1.627933 -1.460992 69.691109
1.723248 -1.457308 69.515373
1.822587 -1.457243 69.512276
1.921913 -1.457175 69.509026
2.021227 -1.457105 69.505684
2.120526 -1.457031 69.502159
2.216196 -1.454583 69.385353
2.314826 -1.454203 69.367256
2.413897 -1.454121 69.363312
2.508352 -1.451374 69.232277
2.590906 -1.442210 68.795181
2.675204 -1.434653 68.434692
2.756339 -1.425993 68.021591
2.858648 -1.428504 68.141373
2.989599 -1.444691 68.913498
3.182144 -1.488658 71.010811
3.265428 -1.480374 70.615623
3.314079 -1.457356 69.517654
3.409834 -1.455790 69.442947
3.508867 -1.455672 69.437340
3.602480 -1.453375 69.327728
3.692411 -1.449754 69.155022
3.783304 -1.446690 69.008888
3.874378 -1.443850 68.873398
3.972517 -1.443718 68.867119
4.070629 -1.443583 68.860664
4.168716 -1.443446 68.854111
4.266778 -1.443306 68.847450
4.364804 -1.443161 68.840530
4.454763 -1.440414 68.709496
4.549249 -1.439218 68.652428
4.640563 -1.437090 68.550911
4.747926 -1.439917 68.685776
4.849103 -1.440791 68.727493
4.952372 -1.442240 68.796616
5.050173 -1.442072 68.788567
5.147967 -1.441907 68.780716
5.245706 -1.441734 68.772453
5.376964 -1.450610 69.195847
5.478712 -1.451348 69.231041
5.550229 -1.444193 68.889755
5.636365 -1.441026 68.738663
5.733918 -1.440835 68.729591
5.831465 -1.440650 68.720764
5.928941 -1.440454 68.711403
6.026412 -1.440263 68.702293
6.112979 -1.437514 68.571152
6.209799 -1.437225 68.557358
6.293923 -1.434052 68.405998
6.390819 -1.433841 68.395966
6.487712 -1.433637 68.386208
6.584533 -1.433423 68.375992
6.681331 -1.433210 68.365829
6.778098 -1.432996 68.355652
6.874778 -1.432771 68.344902
6.971458 -1.432552 68.334450
7.068047 -1.432320 68.323410
7.164636 -1.432095 68.312675
7.276230 -1.434835 68.443359
7.380254 -1.436029 68.500328
7.525073 -1.445026 68.929474
7.628909 -1.446021 68.976974
7.728424 -1.446183 68.984695
7.790163 -1.439361 68.659279
7.881350 -1.438082 68.598274
7.966579 -1.435761 68.487556
8.063058 -1.435499 68.475060
8.159544 -1.435245 68.462929
8.255981 -1.434988 68.450668
8.352236 -1.434706 68.437218
8.448568 -1.434443 68.424690
8.544845 -1.434178 68.412018
8.641072 -1.433910 68.399231
8.737243 -1.433639 68.386299
8.833217 -1.433341 68.372124
8.929278 -1.433065 68.358925
9.025284 -1.432785 68.345589
9.121234 -1.432503 68.332130
9.217093 -1.432213 68.318275
9.312807 -1.431906 68.303650
9.408584 -1.431615 68.289787
9.524011 -1.434290 68.417366
9.650328 -1.438533 68.619789
9.753526 -1.439280 68.655396
9.849638 -1.438976 68.640915
9.945692 -1.438670 68.626312
10.040687 -1.438219 68.604767
10.116637 -1.435074 68.454765
10.182178 -1.430527 68.237885
10.267537 -1.428825 68.156677
10.362709 -1.428507 68.141518
10.457817 -1.428187 68.126228
10.552861 -1.427863 68.110809
10.658939 -1.429025 68.166229
10.781904 -1.432409 68.327667
10.875505 -1.431867 68.301788
10.997724 -1.435069 68.454506
11.349293 -1.467877 70.019501
12.255596 -1.571231 74.949615
12.987328 -1.650606 78.735901
13.198394 -1.663012 79.327675
13.333630 -1.665733 79.457481
13.408137 -1.660886 79.226257
13.420468 -1.648482 78.634598
13.268290 -1.616246 77.096878
13.294282 -1.606065 76.611244
-15.657918 -1.677254 85.755478
-15.550906 -1.678942 85.841782
-15.419248 -1.677974 85.792328
-15.313001 -1.679779 85.884605
-15.088302 -1.668514 85.308647
-14.611631 -1.628975 83.287048
-12.681047 -1.425364 72.876724
-12.396304 -1.404905 71.830719
-12.296509 -1.405241 71.847878
-12.196705 -1.405581 71.865273
-12.096945 -1.405932 71.883224
-11.961548 -1.402112 71.687904
-11.845871 -1.400557 71.608414
-11.704899 -1.395959 71.373291
-11.605683 -1.396303 71.390892
-11.506170 -1.396617 71.406967
-11.406593 -1.396929 71.422920
-11.306946 -1.397239 71.438728
-11.207236 -1.397545 71.454414
-11.107618 -1.397870 71.470985
-11.066792 -1.405667 71.869667
-11.135973 -1.427715 72.996933
-11.244002 -1.455207 74.402588
-11.287138 -1.474747 75.401604
-10.571914 -1.394622 71.304939
-10.389949 -1.383968 70.760201
-10.254733 -1.379392 70.526260
-10.150934 -1.378994 70.505890
-10.048705 -1.378803 70.496124
-9.950020 -1.379099 70.511269
-9.851103 -1.379369 70.525070
-9.752131 -1.379636 70.538757
-9.653099 -1.379901 70.552292
-9.554119 -1.380179 70.566498
-9.455018 -1.380445 70.580101
-9.355814 -1.380702 70.593216
-9.256555 -1.380956 70.606209
-9.157242 -1.381207 70.619064
-9.058011 -1.381477 70.632851
-8.958587 -1.381723 70.645416
-8.859109 -1.381966 70.657852
-8.759613 -1.382212 70.670418
-8.660061 -1.382454 70.682823
-8.560426 -1.382689 70.694839
-8.460800 -1.382931 70.707214
-8.361062 -1.383161 70.718941
-8.307666 -1.391156 71.127731
-8.225506 -1.394473 71.297325
-8.124837 -1.394696 71.308731
-8.015887 -1.393485 71.246826
-7.871344 -1.385976 70.862892
-7.730301 -1.378895 70.500862
-7.602065 -1.373942 70.247612
-7.502757 -1.374154 70.258469
-7.395079 -1.372819 70.190178
-7.275469 -1.369201 70.005196
-7.158784 -1.366040 69.843590
-7.049699 -1.364260 69.752602
-6.950951 -1.364459 69.762756
-6.852119 -1.364647 69.772346
-6.753255 -1.364833 69.781891
-6.654373 -1.365022 69.791527
-6.555419 -1.365201 69.800697
-6.456462 -1.365385 69.810120
-6.357430 -1.365559 69.819008
-6.258392 -1.365737 69.828117
-6.159284 -1.365906 69.836731
-6.060139 -1.366072 69.845200
-5.960988 -1.366241 69.853882
-5.863598 -1.366827 69.883842
-5.780264 -1.370767 70.085281
-5.685800 -1.372160 70.156487
-5.607586 -1.377595 70.434364
-5.528946 -1.383122 70.716965
-5.402182 -1.376592 70.383095
-5.268055 -1.367902 69.938805
-5.166366 -1.367462 69.916298
-5.066905 -1.367606 69.923637
-4.967390 -1.367740 69.930527
-4.854462 -1.364112 69.744995
-4.734466 -1.358303 69.447983
-4.609618 -1.350823 69.065559
-4.505716 -1.349288 68.987091
-4.407442 -1.349408 68.993202
-4.309146 -1.349526 68.999245
-4.223896 -1.353831 69.219360
-4.137857 -1.358084 69.436798
-4.041262 -1.358996 69.483437
-3.955296 -1.363619 69.719788
-3.855878 -1.363723 69.725121
-3.756438 -1.363825 69.730316
-3.656978 -1.363924 69.735420
-3.560446 -1.365152 69.798203
-3.460859 -1.365246 69.803009
-3.356651 -1.363468 69.712105
-3.246214 -1.358974 69.482330
-3.114413 -1.344970 68.766312
-2.975115 -1.326709 67.832672
-2.857908 -1.317401 67.356728
-2.743051 -1.308564 66.904930
-2.644792 -1.307292 66.839905
-2.549329 -1.307359 66.843338
-2.453851 -1.307424 66.846619
-2.358360 -1.307486 66.849815
-2.264160 -1.308300 66.891418
-2.177945 -1.314002 67.182983
-2.096341 -1.323142 67.650284
-2.037164 -1.348006 68.921547
-1.955625 -1.359849 69.527061
-1.856954 -1.360410 69.555748
-1.763745 -1.365263 69.803864
-1.664184 -1.365486 69.815239
-1.565468 -1.366475 69.865829
-1.465586 -1.366511 69.867676
-1.364563 -1.365411 69.811440
-1.263135 -1.363701 69.724007
-1.161345 -1.361272 69.599831
-1.053559 -1.350703 69.059425
-0.945033 -1.336898 68.353615
-0.846309 -1.335375 68.275742
-0.754797 -1.346318 68.835220
-0.659067 -1.351892 69.120232
-0.561941 -1.356065 69.333565
-0.464209 -1.360250 69.547569
-0.364744 -1.360254 69.547745
-0.265278 -1.360254 69.547783
-0.165811 -1.360252 69.547668
-0.066345 -1.360247 69.547409
0.033121 -1.360239 69.546997
0.132585 -1.360228 69.546425
0.232211 -1.361171 69.594627
0.332805 -1.365521 69.817055
0.433585 -1.368451 69.966873
0.534575 -1.370823 70.088112
0.634303 -1.369719 70.031670
0.732766 -1.366557 69.870010
0.832674 -1.366525 69.868401
0.929713 -1.362296 69.652153
1.034583 -1.369250 70.007698
1.144756 -1.381375 70.627640
1.243939 -1.379349 70.524063
1.336519 -1.370853 70.089691
1.436376 -1.370486 70.070923
1.528548 -1.363313 69.704155
1.623941 -1.359715 69.520203
1.723295 -1.359658 69.517273
1.822637 -1.359597 69.514168
1.921966 -1.359534 69.510933
2.015072 -1.355291 69.294014
2.112316 -1.354099 69.233086
2.204422 -1.349868 69.016716
2.301093 -1.348674 68.955711
2.380529 -1.337893 68.404472
2.447228 -1.321087 67.545212
2.534037 -1.316001 67.285164
2.624407 -1.313069 67.135246
2.720244 -1.312982 67.130829
2.824742 -1.316939 67.333145
2.924971 -1.318711 67.423737
3.043665 -1.328429 67.920601
3.202786 -1.354645 69.260979
3.310868 -1.358348 69.450294
3.408754 -1.357774 69.420944
3.496837 -1.353438 69.199265
3.582867 -1.348568 68.950279
3.678116 -1.347336 68.887299
3.776312 -1.347220 68.881355
3.874484 -1.347101 68.875282
3.972626 -1.346978 68.868996
4.070740 -1.346852 68.862541
4.168830 -1.346724 68.855988
4.252797 -1.342145 68.621864
4.347905 -1.341209 68.574013
4.432096 -1.337021 68.359879
4.529159 -1.336813 68.349251
4.626431 -1.336674 68.342155
4.738231 -1.340652 68.545517
4.835719 -1.340501 68.537804
4.933198 -1.340353 68.530258
5.036284 -1.341705 68.599380
5.148106 -1.345288 68.782578
5.245848 -1.345127 68.774323
5.350509 -1.346712 68.855400
5.462547 -1.350064 69.026779
5.538895 -1.344633 68.749077
5.636518 -1.344466 68.740524
5.734073 -1.344288 68.731453
5.831623 -1.344115 68.722618
5.910885 -1.339803 68.502151
6.004994 -1.338942 68.458115
6.100137 -1.338336 68.427101
6.197117 -1.338145 68.417343
6.274755 -1.333848 68.197678
6.371229 -1.333626 68.186317
6.462592 -1.332357 68.121422
6.559040 -1.332158 68.111259
6.655463 -1.331960 68.101135
6.751855 -1.331762 68.091003
6.852614 -1.332418 68.124557
6.944466 -1.331349 68.069878
7.040682 -1.331134 68.058884
7.141870 -1.331852 68.095604
7.239059 -1.331815 68.093719
7.357830 -1.335697 68.292198
7.483460 -1.340706 68.548302
7.586480 -1.341587 68.593353
7.683297 -1.341363 68.581894
7.773567 -1.340016 68.513008
7.870203 -1.339786 68.501259
7.966794 -1.339554 68.489403
8.063275 -1.339310 68.476906
8.159763 -1.339072 68.464767
8.256203 -1.338833 68.452515
8.352462 -1.338570 68.439064
8.448795 -1.338324 68.426529
8.545077 -1.338077 68.413872
8.617940 -1.334209 68.216125
8.737477 -1.337573 68.388130
8.833455 -1.337296 68.373962
8.929519 -1.337038 68.360764
9.025526 -1.336777 68.347427
9.121479 -1.336514 68.333961
9.217340 -1.336243 68.320107
9.313055 -1.335957 68.305473
9.408836 -1.335686 68.291618
9.504557 -1.335412 68.277618
9.581345 -1.332510 68.129272
9.665868 -1.330732 68.038368
9.771462 -1.331862 68.096115
9.886680 -1.334268 68.219124
9.982104 -1.333982 68.204491
10.077466 -1.333693 68.189713
10.172576 -1.333376 68.173538
10.267812 -1.333082 68.158501
10.362985 -1.332785 68.143333
10.458096 -1.332486 68.128044
10.553143 -1.332185 68.112625
10.647917 -1.331855 68.095741
10.742834 -1.331548 68.080070
10.837684 -1.331239 68.064262
10.932469 -1.330927 68.048332
11.027189 -1.330613 68.032280
11.130840 -1.331373 68.071121
11.302833 -1.340223 68.523621
11.855898 -1.393718 71.258736
13.279029 -1.547710 79.132103
13.369438 -1.545079 78.997589
13.259018 -1.519477 77.688614
13.123506 -1.491450 76.255592
13.111422 -1.477795 75.557472
-15.647591 -1.555717 85.698921
-15.484260 -1.551632 85.473892
-15.377047 -1.553151 85.557526
-15.259042 -1.553594 85.581970
-13.762745 -1.412580 77.814003
-12.647582 -1.308705 72.091866
-12.495302 -1.303574 71.809265
-12.319418 -1.295876 71.385201
-12.201116 -1.294157 71.290504
-12.102088 -1.294471 71.307770
-12.003102 -1.294794 71.325584
-11.903867 -1.295096 71.342209
-11.804562 -1.295395 71.358696
-11.705188 -1.295692 71.375053
-11.601174 -1.295476 71.363159
-11.501700 -1.295768 71.379227
-11.402161 -1.296057 71.395172
-11.302556 -1.296344 71.410988
-11.202884 -1.296629 71.426666
-11.103304 -1.296930 71.443230
-11.008090 -1.297751 71.488449
-10.926500 -1.300208 71.623825
-10.915700 -1.311216 72.230186
-10.767805 -1.305808 71.932297
-10.523360 -1.288474 70.977455
-10.349218 -1.279495 70.482803
-10.246489 -1.279255 70.469566
-10.143559 -1.278984 70.454666
-10.044803 -1.279240 70.468750
-9.950266 -1.280043 70.513016
-9.851349 -1.280294 70.526833
-9.752374 -1.280542 70.540512
-9.653339 -1.280788 70.554047
-9.554358 -1.281046 70.568260
-9.455252 -1.281293 70.581848
-9.356047 -1.281531 70.594978
-9.252961 -1.281237 70.578789
-9.153687 -1.281471 70.591644
-9.039845 -1.279647 70.491188
-8.923884 -1.277479 70.371758
-8.824790 -1.277704 70.384132
-8.723805 -1.277656 70.381531
-8.626513 -1.278155 70.409012
-8.527265 -1.278373 70.420982
-8.428025 -1.278596 70.433311
-8.361272 -1.283814 70.720718
-8.269591 -1.285285 70.801743
-8.192396 -1.289071 71.010330
-8.093364 -1.289474 71.032501
-7.980425 -1.287643 70.931633
-7.861942 -1.284858 70.778244
-7.701557 -1.275064 70.238716
-7.602256 -1.275257 70.249374
-7.502944 -1.275454 70.260223
-7.374701 -1.270672 69.996758
-7.262944 -1.268637 69.884674
-7.148625 -1.266092 69.744469
-7.049876 -1.266271 69.754356
-6.951125 -1.266455 69.764503
-6.852292 -1.266630 69.774109
-6.753425 -1.266803 69.783646
-6.649052 -1.265933 69.735725
-6.496353 -1.255695 69.171776
-6.384757 -1.253209 69.034813
-6.292629 -1.254526 69.107353
-6.197117 -1.255199 69.144440
-6.102264 -1.256030 69.190216
-6.046740 -1.265117 69.690765
-5.961138 -1.268110 69.855637
-5.861918 -1.268258 69.863823
-5.762690 -1.268410 69.872192
-5.663400 -1.268554 69.880096
-5.594307 -1.275588 70.267578
-5.505328 -1.278262 70.414879
-5.365355 -1.268975 69.903290
-5.265952 -1.269113 69.910881
-5.166497 -1.269243 69.918068
-5.066229 -1.269175 69.914322
-4.923524 -1.258259 69.312988
-4.738169 -1.235770 68.074181
-4.613897 -1.228604 67.679405
-4.489949 -1.221218 67.272560
-4.394150 -1.221333 67.278893
-4.298309 -1.221442 67.284859
-4.202447 -1.221548 67.290741
-4.121046 -1.225962 67.533897
-4.060292 -1.236878 68.135201
-4.026603 -1.256778 69.231407
-3.939975 -1.260741 69.449738
-3.840943 -1.260838 69.455048
-3.751944 -1.264320 69.646889
-3.655560 -1.265436 69.708374
-3.557585 -1.266049 69.742126
-3.457827 -1.266044 69.741852
-3.345458 -1.261284 69.479652
-3.238908 -1.258494 69.325951
-3.101240 -1.243055 68.475449
-2.971938 -1.230071 67.760223
-2.857980 -1.222777 67.358437
-2.751032 -1.218078 67.099586
-2.644858 -1.213395 66.841591
-2.549393 -1.213457 66.845032
-2.453913 -1.213517 66.848312
-2.358420 -1.213575 66.851501
-2.262912 -1.213630 66.854523
-2.167391 -1.213682 66.857414
-2.087589 -1.222948 67.367828
-2.024597 -1.243434 68.496361
-1.955674 -1.262177 69.528816
-1.856299 -1.262220 69.531219
-1.756914 -1.262262 69.533493
-1.664005 -1.267240 69.807747
-1.564211 -1.267276 69.809700
-1.464408 -1.267309 69.811539
-1.358795 -1.261951 69.516350
-1.241967 -1.244509 68.555550
-1.120175 -1.218676 67.132538
-1.019903 -1.213607 66.853264
-0.924304 -1.213625 66.854294
-0.828701 -1.213642 66.855186
-0.733093 -1.213655 66.855927
-0.637662 -1.214007 66.875313
-0.546016 -1.222964 67.368744
-0.457647 -1.244670 68.564445
-0.364227 -1.260732 69.449219
-0.265285 -1.262553 69.549545
-0.165815 -1.262551 69.549423
-0.066346 -1.262546 69.549164
0.033122 -1.262539 69.548752
0.132589 -1.262528 69.548187
0.232054 -1.262516 69.547485
0.331516 -1.262500 69.546623
0.429402 -1.257875 69.291870
0.518046 -1.232989 67.920990
0.609451 -1.221495 67.287788
0.703837 -1.218296 67.111603
0.799801 -1.218269 67.110069
0.899010 -1.222659 67.351944
0.998178 -1.226151 67.544273
1.128456 -1.263868 69.621986
1.236064 -1.272138 70.077545
1.336243 -1.272095 70.075188
1.430411 -1.266735 69.779922
1.524614 -1.262103 69.524742
1.623982 -1.262052 69.521965
1.723339 -1.261999 69.519035
1.818880 -1.259310 69.370903
1.913863 -1.256532 69.217873
2.005603 -1.252004 68.968407
2.104134 -1.251940 68.964920
2.200935 -1.250899 68.907570
2.276388 -1.238334 68.215408
2.343476 -1.222438 67.339760
2.430250 -1.217661 67.076599
2.516670 -1.213076 66.824013
2.612075 -1.212999 66.819778
2.707462 -1.212919 66.815392
2.802830 -1.212837 66.810844
2.905319 -1.215739 66.970734
3.015811 -1.221699 67.299019
3.144906 -1.234592 68.009293
3.293921 -1.254298 69.094818
3.393989 -1.254760 69.120255
3.481744 -1.250772 68.900589
3.579989 -1.250669 68.894890
3.678208 -1.250563 68.889030
3.776407 -1.250455 68.883087
3.874582 -1.250345 68.877022
3.972358 -1.250115 68.864357
4.060989 -1.247087 68.697586
4.151090 -1.244644 68.562981
4.233796 -1.240147 68.315269
4.331063 -1.240022 68.308388
4.428316 -1.239899 68.301582
4.525520 -1.239767 68.294334
4.622713 -1.239638 68.287239
4.719876 -1.239507 68.279991
4.816988 -1.239367 68.272316
4.914090 -1.239231 68.264809
5.028869 -1.243471 68.498383
5.128166 -1.243794 68.516159
5.245547 -1.248409 68.770370
5.343706 -1.248363 68.767853
5.441388 -1.248209 68.759399
5.539035 -1.248053 68.750809
5.636660 -1.247898 68.742256
5.720656 -1.244783 68.570633
5.809035 -1.242710 68.456436
5.906136 -1.242540 68.447113
5.979828 -1.237532 68.171219
6.076507 -1.237365 68.162041
6.173112 -1.237189 68.152328
6.269713 -1.237017 68.142876
6.366236 -1.236836 68.132874
6.462756 -1.236659 68.123146
6.559205 -1.236475 68.112968
6.655630 -1.236291 68.102852
6.752025 -1.236107 68.092712
6.848333 -1.235912 68.082001
6.944641 -1.235723 68.071587
7.040858 -1.235524 68.060585
7.137077 -1.235330 68.049904
7.233241 -1.235132 68.038994
7.329329 -1.234926 68.027664
7.448690 -1.238596 68.229813
7.580382 -1.244194 68.538223
7.677122 -1.243986 68.526772
7.773761 -1.243768 68.514725
7.870400 -1.243554 68.502968
7.966993 -1.243339 68.491112
8.060145 -1.242599 68.450325
8.146359 -1.240819 68.352295
8.244709 -1.240908 68.357216
8.320107 -1.237582 68.173950
8.416066 -1.237355 68.161461
8.511974 -1.237126 68.148842
8.607830 -1.236894 68.136101
8.703632 -1.236661 68.123222
8.799237 -1.236404 68.109100
8.920572 -1.239730 68.292274
9.022021 -1.240249 68.320885
9.121706 -1.240517 68.335663
9.217568 -1.240266 68.321800
9.313287 -1.240000 68.307175
9.405432 -1.239269 68.266907
9.454323 -1.232912 67.916748
9.525749 -1.229594 67.733955
9.620443 -1.229316 67.718620
9.715244 -1.229057 67.704338
9.809985 -1.228795 67.689926
9.939325 -1.232830 67.912193
10.034278 -1.232563 67.897484
10.133168 -1.232780 67.909439
10.228037 -1.232508 67.894470
10.358959 -1.236545 68.116859
10.424581 -1.232785 67.909714
10.549043 -1.235988 68.086166
10.643782 -1.235682 68.069298
10.738661 -1.235397 68.053627
10.834442 -1.235221 68.043900
10.932739 -1.235332 68.050011
11.027460 -1.235040 68.033951
11.121889 -1.234721 68.016380
11.216474 -1.234425 68.000069
11.310992 -1.234127 67.983627
11.912471 -1.288676 70.988541
13.291025 -1.425655 78.534264
13.065353 -1.389705 76.553871
12.824292 -1.352728 74.516975
12.883148 -1.347737 74.241997
-15.486617 -1.420522 84.817299
-15.248988 -1.409768 84.175179
-15.123618 -1.409303 84.147453
-13.903369 -1.305986 77.978531
-12.724502 -1.204917 71.943817
-12.578622 -1.200813 71.698792
-12.421736 -1.195583 71.386490
-12.300416 -1.193717 71.275093
-12.181233 -1.192029 71.174324
-12.050080 -1.189132 71.001328
-11.936821 -1.187966 70.931725
-11.838135 -1.188243 70.948265
-11.757619 -1.190364 71.074928
-11.640553 -1.188790 70.980927
-11.541882 -1.189083 70.998428
-11.442918 -1.189351 71.014427
-11.343886 -1.189617 71.030281
-11.244790 -1.189880 71.046013
-11.134993 -1.189006 70.993813
-11.046556 -1.190417 71.078087
-10.990152 -1.195339 71.371956
-10.890402 -1.195594 71.387199
-10.790589 -1.195848 71.402313
-10.625074 -1.188755 70.978806
-10.454945 -1.181004 70.516014
-10.330221 -1.178281 70.353424
-10.184406 -1.173075 70.042595
-10.035799 -1.167441 69.706192
-9.921746 -1.165754 69.605446
-9.856723 -1.169851 69.850121
-9.804739 -1.175596 70.193146
-9.714574 -1.176835 70.267097
-9.637609 -1.179715 70.439079
-9.523678 -1.178084 70.341660
-9.438655 -1.180031 70.457954
-9.332226 -1.179316 70.415237
-9.205672 -1.176014 70.218086
-9.106904 -1.176228 70.230865
-9.016211 -1.177502 70.306900
-8.892984 -1.174507 70.128090
-8.790590 -1.174227 70.111359
-8.691862 -1.174435 70.123817
-8.593079 -1.174641 70.136124
-8.501662 -1.175871 70.209549
-8.428218 -1.179646 70.434929
-8.361464 -1.184459 70.722343
-8.261687 -1.184656 70.734070
-8.161887 -1.184854 70.745880
-8.061996 -1.185043 70.757195
-7.962110 -1.185238 70.768845
-7.853185 -1.184075 70.699409
-7.701734 -1.176387 70.240334
-7.602431 -1.176565 70.250992
-7.481352 -1.173333 70.058029
-7.372111 -1.171896 69.972176
-7.247454 -1.167934 69.735634
-7.148790 -1.168109 69.746086
-7.050039 -1.168274 69.755966
-6.951286 -1.168444 69.766113
-6.852450 -1.168605 69.775711
-6.708395 -1.160945 69.318352
-6.501455 -1.142009 68.187714
-6.355297 -1.133336 67.669846
-6.258119 -1.133264 67.665550
-6.162130 -1.133409 67.674171
-6.066134 -1.133556 67.682999
-5.970071 -1.133696 67.691353
-5.896154 -1.138115 67.955215
-5.877037 -1.153438 68.870094
-5.846346 -1.166973 69.678238
-5.762824 -1.170248 69.873817
-5.663531 -1.170381 69.881714
-5.569636 -1.171653 69.957687
-5.464869 -1.170643 69.897400
-5.356614 -1.168835 69.789406
-5.251600 -1.167678 69.720345
-5.139331 -1.164832 69.550430
-5.020782 -1.160423 69.287140
-4.816074 -1.135521 67.800308
-4.681606 -1.126498 67.261528
-4.578266 -1.124743 67.156746
-4.476581 -1.123328 67.072273
-4.377119 -1.122421 67.018143
-4.276726 -1.121230 66.947006
-4.186159 -1.122619 67.029945
-4.099870 -1.125247 67.186874
-4.010742 -1.127204 67.303711
-3.954454 -1.138713 67.990906
-3.933973 -1.161374 69.343933
-3.841032 -1.163262 69.456657
-3.741975 -1.163348 69.461838
-3.642898 -1.163434 69.466919
-3.543798 -1.163516 69.471848
-3.444677 -1.163596 69.476631
-3.345536 -1.163674 69.481262
-3.227059 -1.156825 69.072319
-3.099851 -1.146315 68.444786
-2.963092 -1.131472 67.558540
-2.855288 -1.127058 67.294998
-2.741057 -1.119711 66.856285
-2.644920 -1.119491 66.843155
-2.549453 -1.119548 66.846588
-2.453970 -1.119603 66.849869
-2.358475 -1.119657 66.853065
-2.262964 -1.119707 66.856079
-2.167441 -1.119756 66.858978
-2.083270 -1.125944 67.228477
-2.017379 -1.143089 68.252174
-1.948888 -1.160429 69.287552
-1.856342 -1.164538 69.532837
-1.756955 -1.164576 69.535110
-1.658595 -1.165340 69.580757
-1.564247 -1.169202 69.811333
-1.459510 -1.165294 69.578003
-1.334563 -1.143499 68.276649
-1.212792 -1.121198 66.945114
-1.111833 -1.115964 66.632561
-1.014690 -1.113938 66.511620
-0.919580 -1.113955 66.512642
-0.822655 -1.111524 66.367470
-0.728809 -1.113160 66.465179
-0.634225 -1.113992 66.514862
-0.540031 -1.115925 66.630234
-0.446448 -1.120217 66.886497
-0.358945 -1.146269 68.442024
-0.264891 -1.163089 69.446358
-0.165819 -1.164843 69.551048
-0.066348 -1.164838 69.550789
0.033123 -1.164831 69.550369
0.132592 -1.164822 69.549805
0.232059 -1.164810 69.549103
0.329700 -1.158390 69.165771
0.417500 -1.128336 67.371315
0.510120 -1.120138 66.881805
0.605762 -1.120117 66.880554
0.700945 -1.119368 66.835831
0.795714 -1.118217 66.767105
0.892656 -1.120039 66.875923
0.988274 -1.120009 66.874107
1.084043 -1.120139 66.881851
1.227671 -1.165691 69.601715
1.331905 -1.169811 69.847702
1.428250 -1.166910 69.674515
1.524649 -1.164429 69.526360
1.624020 -1.164383 69.523582
1.720036 -1.162075 69.385788
1.815619 -1.159742 69.246521
1.907101 -1.155167 68.973328
2.005650 -1.155112 68.970024
2.096316 -1.150734 68.708679
2.163298 -1.134330 67.729202
2.244183 -1.126310 67.250320
2.328002 -1.120361 66.895111
2.421302 -1.119264 66.829620
2.516728 -1.119196 66.825562
2.612136 -1.119125 66.821335
2.707525 -1.119052 66.816940
2.802895 -1.118976 66.812401
2.898247 -1.118897 66.807716
2.993956 -1.118958 66.811333
3.112937 -1.127443 67.317970
3.277833 -1.151549 68.757339
3.383554 -1.154068 68.907745
3.481825 -1.153975 68.902191
3.580071 -1.153880 68.896484
3.678294 -1.153782 68.890633
3.776495 -1.153682 68.884689
3.860680 -1.149415 68.629898
3.955865 -1.148553 68.578438
4.043119 -1.145486 68.395294
4.136588 -1.144283 68.323463
4.219929 -1.140398 68.091515
4.316878 -1.140283 68.084663
4.406551 -1.138294 67.965889
4.510697 -1.140049 68.070641
4.607573 -1.139930 68.063576
4.712499 -1.141767 68.173264
4.817100 -1.143453 68.273903
4.914203 -1.143327 68.266388
5.011251 -1.143193 68.258408
5.123606 -1.146490 68.455238
5.225649 -1.147399 68.509506
5.343829 -1.151752 68.769440
5.441514 -1.151611 68.760986
5.539163 -1.151467 68.752396
5.614815 -1.146835 68.475838
5.711994 -1.146684 68.466805
5.797268 -1.144188 68.317772
5.890429 -1.143305 68.265083
5.979966 -1.141760 68.172798
6.076647 -1.141606 68.163612
6.173254 -1.141443 68.153900
6.269858 -1.141285 68.144447
6.366383 -1.141117 68.134445
6.462904 -1.140954 68.124710
6.559356 -1.140784 68.114540
6.655784 -1.140614 68.104424
6.752180 -1.140444 68.094276
6.848490 -1.140265 68.083565
6.944800 -1.140091 68.073151
7.041019 -1.139906 68.062149
7.137240 -1.139727 68.051460
7.233408 -1.139545 68.040565
7.329497 -1.139355 68.029221
7.425581 -1.139169 68.018135
7.542748 -1.142181 68.197952
7.614622 -1.138344 67.968887
7.705394 -1.137394 67.912163
7.832315 -1.141738 68.171486
7.940897 -1.143333 68.266769
8.018807 -1.140528 68.099266
8.119746 -1.141026 68.128998
8.210819 -1.140142 68.076233
8.319418 -1.141684 68.168304
8.410474 -1.140811 68.116173
8.498104 -1.139499 68.037796
8.608027 -1.141171 68.137657
8.703831 -1.140955 68.124779
8.799437 -1.140719 68.110649
8.895131 -1.140499 68.097504
8.990769 -1.140276 68.084221
9.119456 -1.144205 68.318810
9.217778 -1.144281 68.323357
9.285894 -1.140645 68.106262
9.336060 -1.134903 67.763390
9.431044 -1.134670 67.749519
9.525967 -1.134436 67.735504
9.620663 -1.134179 67.720169
9.715465 -1.133940 67.705879
9.810208 -1.133698 67.691460
9.904893 -1.133455 67.676933
9.999517 -1.133209 67.662270
10.093893 -1.132940 67.646225
10.188392 -1.132691 67.631302
10.282828 -1.132438 67.616249
10.377202 -1.132184 67.601074
10.471515 -1.131928 67.585777
10.577755 -1.132954 67.647041
10.683775 -1.133938 67.705803
10.778105 -1.133675 67.690086
10.890362 -1.135285 67.786240
10.984717 -1.135018 67.770248
11.103763 -1.137283 67.905533
11.216727 -1.138892 68.001602
11.311248 -1.138617 67.985168
11.414135 -1.139182 68.018867
12.080436 -1.195492 71.381111
12.632411 -1.239641 74.017136
12.498454 -1.216303 72.623657
12.679406 -1.223743 73.067886
-15.100975 -1.268926 82.705208
-14.813417 -1.254589 81.770805
-14.062501 -1.200470 78.243423
-12.903621 -1.110376 72.371338
-12.634659 -1.096023 71.435852
-12.467857 -1.090370 71.067429
-12.325554 -1.086785 70.833740
-12.210474 -1.085560 70.753922
-12.106692 -1.085328 70.738785
-12.008430 -1.085591 70.755920
-11.889270 -1.083953 70.649162
-11.744925 -1.079971 70.389641
-11.645595 -1.080095 70.397743
-11.547561 -1.080343 70.413887
-11.450208 -1.080659 70.434509
-11.417408 -1.087128 70.856110
-11.318599 -1.087371 70.871941
-11.219723 -1.087612 70.887642
-11.120781 -1.087850 70.903198
-11.021931 -1.088103 70.919640
-10.922901 -1.088342 70.935219
-10.829451 -1.089146 70.987663
-10.724562 -1.088805 70.965408
-10.586968 -1.085105 70.724251
-10.428049 -1.079126 70.334602
-10.266270 -1.072733 69.917892
-10.044979 -1.059934 69.083694
-9.827258 -1.047261 68.257713
-9.685557 -1.042517 67.948479
-9.619548 -1.045906 68.169365
-9.584071 -1.052718 68.613358
-9.621046 -1.067711 69.590599
-9.578637 -1.074116 70.008064
-9.487167 -1.075097 70.071991
-9.391567 -1.075626 70.106445
-9.289201 -1.075383 70.090599
-9.185153 -1.074938 70.061577
-9.086605 -1.075133 70.074326
-8.988141 -1.075343 70.088013
-8.889484 -1.075535 70.100487
-8.790775 -1.075724 70.112831
-8.692045 -1.075915 70.125298
-8.593260 -1.076104 70.137604
-8.494394 -1.076287 70.149529
-8.428396 -1.080689 70.436417
-8.359899 -1.084872 70.709106
-8.261862 -1.085278 70.735565
-8.162058 -1.085459 70.747368
-8.062166 -1.085633 70.758690
-7.962279 -1.085812 70.770340
-7.841199 -1.083068 70.591507
-7.701897 -1.077703 70.241814
-7.602591 -1.077866 70.252472
-7.475957 -1.074108 70.007500
-7.352987 -1.070781 69.790665
-7.247607 -1.069959 69.737106
-7.148941 -1.070120 69.747559
-7.050188 -1.070271 69.757446
-6.951433 -1.070427 69.767593
-6.835633 -1.067924 69.604477
-6.619058 -1.049371 68.395226
-6.452956 -1.038383 67.679054
-6.354172 -1.038058 67.657860
-6.251811 -1.037129 67.597343
-6.138236 -1.034282 67.411766
-6.042614 -1.034417 67.420570
-5.952935 -1.035591 67.497047
-5.868526 -1.037735 67.636787
-5.784374 -1.039997 67.784225
-5.754902 -1.052335 68.588379
-5.740188 -1.067846 69.599365
-5.663651 -1.072201 69.883194
-5.564333 -1.072322 69.891083
-5.452596 -1.070010 69.740425
-5.328488 -1.065139 69.422966
-5.225204 -1.064326 69.369919
-5.126519 -1.064435 69.377045
-4.951533 -1.048393 68.331505
-4.779627 -1.032371 67.287216
-4.669575 -1.029325 67.088676
-4.564785 -1.027336 66.959007
-4.457006 -1.024574 66.778984
-4.360148 -1.024256 66.758286
-4.265049 -1.024347 66.764206
-4.172693 -1.025116 66.814323
-4.078997 -1.025584 66.844826
-3.999229 -1.029660 67.110512
-3.914886 -1.032730 67.310600
-3.888618 -1.051661 68.544472
-3.841113 -1.065679 69.458130
-3.742054 -1.065758 69.463310
-3.642975 -1.065836 69.468391
-3.543873 -1.065912 69.473320
-3.444751 -1.065986 69.478111
-3.343904 -1.065514 69.447380
-3.222714 -1.058333 68.979324
-3.087832 -1.046060 68.179398
-2.956568 -1.034252 67.409805
-2.851600 -1.031157 67.208069
-2.740606 -1.025591 66.845299
-2.644976 -1.025580 66.844574
-2.549507 -1.025633 66.848015
-2.454022 -1.025683 66.851288
-2.358525 -1.025732 66.854485
-2.263012 -1.025778 66.857498
-2.167487 -1.025823 66.860397
-2.076034 -1.027887 66.994942
-2.009557 -1.043116 67.987534
-1.948930 -1.063085 69.289040
-1.856382 -1.066848 69.534317
-1.756992 -1.066883 69.536591
-1.657592 -1.066915 69.538696
-1.559757 -1.068024 69.610947
-1.458965 -1.067120 69.552032
-1.309338 -1.027752 66.986145
-1.204932 -1.020465 66.511223
-1.108441 -1.019209 66.429314
-1.012429 -1.018197 66.363388
-0.917531 -1.018213 66.364410
-0.822628 -1.018226 66.365295
-0.727722 -1.018238 66.366035
-0.632811 -1.018247 66.366631
-0.537898 -1.018254 66.367088
-0.443155 -1.018654 66.393158
-0.351221 -1.027491 66.969131
-0.263656 -1.060532 69.122643
-0.165729 -1.066526 69.513321
-0.066349 -1.067123 69.552269
0.033124 -1.067117 69.551857
0.132595 -1.067108 69.551292
0.232064 -1.067097 69.550575
0.322871 -1.039214 67.733215
0.414482 -1.026190 66.884346
0.510131 -1.026173 66.883232
0.603867 -1.022922 66.671333
0.698680 -1.022132 66.619835
0.793941 -1.022109 66.618324
0.889195 -1.022082 66.616623
0.987335 -1.025058 66.810555
1.083908 -1.026025 66.873573
1.188594 -1.033892 67.386314
1.324830 -1.065964 69.476677
1.425298 -1.066789 69.530495
1.524681 -1.066748 69.527832
1.619358 -1.063621 69.324013
1.716697 -1.062502 69.251091
1.809530 -1.058869 69.014290
1.907142 -1.058263 68.974800
2.005693 -1.058213 68.971489
2.079144 -1.045545 68.145836
2.146197 -1.030938 67.193794
2.232165 -1.026280 66.890190
2.325912 -1.025434 66.835045
2.421354 -1.025372 66.831047
2.509504 -1.022345 66.633743
2.602933 -1.021611 66.585922
2.699753 -1.022213 66.625145
2.794850 -1.022144 66.620621
2.898309 -1.025036 66.809143
2.993642 -1.024962 66.804314
3.100691 -1.028780 67.053139
3.253936 -1.047236 68.256073
3.383626 -1.057257 68.909210
3.481899 -1.057172 68.903656
3.580148 -1.057084 68.897949
3.676585 -1.056481 68.858627
3.763677 -1.053294 68.650894
3.849915 -1.050036 68.438538
3.941986 -1.048490 68.337822
4.020961 -1.043621 68.020454
4.059276 -1.028678 67.046509
4.129976 -1.022442 66.640060
4.206501 -1.017897 66.343826
4.300957 -1.017796 66.337212
4.408099 -1.020636 66.522339
4.523546 -1.025239 66.822327
4.657591 -1.033779 67.378952
4.808732 -1.045690 68.155304
4.914308 -1.047417 68.267838
5.011358 -1.047294 68.259865
5.110713 -1.047649 68.282974
5.222738 -1.050539 68.471336
5.343942 -1.055135 68.770897
5.441629 -1.055005 68.762451
5.539280 -1.054873 68.753853
5.611557 -1.049998 68.436104
5.692377 -1.046862 68.231659
5.754709 -1.040488 67.816231
5.853885 -1.040876 67.841560
5.980093 -1.045981 68.174240
6.076777 -1.045840 68.165062
6.173385 -1.045691 68.155342
6.269990 -1.045545 68.145882
6.366517 -1.045392 68.135887
6.463041 -1.045243 68.126152
6.540526 -1.042064 67.918999
6.636677 -1.041910 67.908913
6.729859 -1.041300 67.869179
6.827340 -1.041363 67.873306
6.944946 -1.044452 68.074585
7.041168 -1.044283 68.063583
7.137391 -1.044119 68.052895
7.233561 -1.043952 68.042000
7.318121 -1.042136 67.923637
7.338070 -1.031287 67.216530
7.367994 -1.022102 66.617912
7.428340 -1.017318 66.306114
7.513130 -1.015961 66.217628
7.593579 -1.014057 66.093552
7.748425 -1.022013 66.612114
7.955264 -1.036551 67.559624
8.096823 -1.042335 67.936661
8.192518 -1.042149 67.924500
8.288034 -1.041944 67.911148
8.383624 -1.041753 67.898712
8.479161 -1.041560 67.886139
8.575687 -1.041492 67.881668
8.704013 -1.045244 68.126205
8.799622 -1.045027 68.112083
8.895316 -1.044825 68.098923
8.990956 -1.044621 68.085640
9.122105 -1.048503 68.338654
9.211789 -1.047587 68.278961
9.245102 -1.040347 67.807076
9.284088 -1.033889 67.386162
9.370040 -1.032741 67.311287
9.479149 -1.034141 67.402596
9.593042 -1.036031 67.525742
9.687571 -1.035812 67.511490
9.782045 -1.035592 67.497131
9.905100 -1.038372 67.678345
9.999726 -1.038147 67.663681
10.094102 -1.037901 67.647629
10.188603 -1.037672 67.632706
10.283041 -1.037441 67.617653
10.377418 -1.037208 67.602478
10.471732 -1.036973 67.587181
10.565775 -1.036716 67.570427
10.659959 -1.036478 67.554871
10.754076 -1.036237 67.539177
10.848131 -1.035995 67.523376
10.942119 -1.035750 67.507439
11.038851 -1.035767 67.508560
11.180276 -1.039941 67.780617
11.310697 -1.043029 67.981857
11.405935 -1.042847 67.970001
11.573175 -1.049196 68.383797
11.920608 -1.071637 69.846466
12.135657 -1.081903 70.515587
12.363731 -1.093152 71.248741
-14.603629 -1.114739 79.981339
-14.108395 -1.085438 77.879051
-13.073347 -1.013810 72.739792
-12.735598 -0.995540 71.428963
-12.545717 -0.988627 70.932976
-12.401474 -0.985227 70.689041
-12.300502 -0.985238 70.689766
-12.150208 -0.981265 70.404709
-11.962321 -0.974164 69.895233
-11.757155 -0.965524 69.275360
-11.601567 -0.960844 68.939560
-11.445892 -0.956076 68.597473
-11.350406 -0.956297 68.613319
-11.254854 -0.956516 68.629044
-11.244374 -0.964033 69.168350
-11.232128 -0.971530 69.706268
-11.224795 -0.979590 70.284584
-11.214919 -0.987572 70.857285
-11.118406 -0.988001 70.888062
-11.019580 -0.988231 70.904510
-10.920895 -0.988477 70.922188
-10.823968 -0.988889 70.951721
-10.722272 -0.988868 70.950256
-10.541908 -0.981523 70.423233
-10.339097 -0.971926 69.734642
-10.110339 -0.959679 68.855934
-9.882135 -0.947244 67.963745
-9.759609 -0.944792 67.787842
-9.662474 -0.944774 67.786537
-9.569677 -0.945184 67.815956
-9.474544 -0.945369 67.829247
-9.413877 -0.949033 68.092110
-9.451962 -0.962833 69.082230
-9.469011 -0.974758 69.937889
-9.382262 -0.976139 70.036987
-9.283822 -0.976321 70.050011
-9.185327 -0.976501 70.062904
-9.086778 -0.976678 70.075661
-8.988312 -0.976869 70.089348
-8.889654 -0.977043 70.101830
-8.790942 -0.977215 70.114166
-8.692210 -0.977389 70.126625
-8.593423 -0.977560 70.138931
-8.494556 -0.977727 70.150864
-8.395698 -0.977898 70.163155
-8.327001 -0.981629 70.430855
-8.227896 -0.981823 70.444763
-8.128503 -0.981987 70.456520
-8.060447 -0.985988 70.743599
-7.952000 -0.985087 70.678986
-7.810779 -0.980051 70.317642
-7.702044 -0.979013 70.243156
-7.591117 -0.977665 70.146446
-7.474166 -0.975495 69.990730
-7.346415 -0.971837 69.728287
-7.247746 -0.971978 69.738441
-7.149078 -0.972124 69.748894
-7.050323 -0.972262 69.758781
-6.951566 -0.972403 69.768929
-6.806848 -0.966026 69.311371
-6.565142 -0.945493 67.838104
-6.450210 -0.942874 67.650253
-6.331701 -0.939646 67.418602
-6.226491 -0.938321 67.323570
-6.114423 -0.935905 67.150238
-6.019171 -0.936028 67.159004
-5.946098 -0.939659 67.419533
-5.851308 -0.939921 67.438354
-5.778101 -0.943717 67.710716
-5.697685 -0.946445 67.906448
-5.660740 -0.956614 68.636055
-5.640474 -0.970010 69.597221
-5.542747 -0.970327 69.619957
-5.442520 -0.970210 69.611549
-5.323941 -0.966756 69.363724
-5.225305 -0.966861 69.371254
-5.089907 -0.960036 68.881577
-4.907554 -0.943911 67.724594
-4.776914 -0.937282 67.249016
-4.662571 -0.933645 66.988060
-4.550340 -0.930287 66.747116
-4.455291 -0.930373 66.753288
-4.360232 -0.930461 66.759575
-4.265131 -0.930543 66.765495
-4.170008 -0.930624 66.771332
-4.074862 -0.930704 66.777061
-3.979692 -0.930782 66.782661
-3.899438 -0.934439 67.044991
-3.821765 -0.938913 67.366051
-3.816983 -0.961990 69.021790
-3.742127 -0.968163 69.464661
-3.643045 -0.968233 69.469734
-3.543942 -0.968302 69.474663
-3.444817 -0.968369 69.479446
-3.342735 -0.967583 69.423103
-3.220844 -0.960840 68.939293
-3.077302 -0.947009 67.946907
-2.954332 -0.938812 67.358810
-2.851379 -0.936639 67.202850
-2.740482 -0.931613 66.842262
-2.645027 -0.931663 66.845863
-2.549556 -0.931711 66.849304
-2.454070 -0.931757 66.852592
-2.358570 -0.931801 66.855774
-2.263056 -0.931843 66.858795
-2.167529 -0.931884 66.861687
-2.075233 -0.933381 66.969093
-2.009950 -0.947760 68.000816
-1.948968 -0.965734 69.290375
-1.856418 -0.969152 69.535667
-1.757026 -0.969184 69.537941
-1.657624 -0.969213 69.540039
-1.558212 -0.969240 69.541992
-1.453587 -0.965807 69.295647
-1.305883 -0.931155 66.809380
-1.202232 -0.924922 66.362206
-1.107343 -0.924941 66.363518
-1.012449 -0.924957 66.364670
-0.917549 -0.924971 66.365692
-0.822644 -0.924983 66.366585
-0.727736 -0.924994 66.367317
-0.632824 -0.925002 66.367920
-0.537909 -0.925008 66.368378
-0.442991 -0.925013 66.368690
-0.348072 -0.925015 66.368858
-0.263126 -0.961457 68.983528
-0.165158 -0.965501 69.273705
-0.066347 -0.969356 69.550262
0.033118 -0.969204 69.539368
0.132341 -0.967514 69.418144
0.230529 -0.962948 69.090485
0.318836 -0.932231 66.886604
0.414394 -0.932001 66.870094
0.508045 -0.928373 66.609772
0.601073 -0.924930 66.362785
0.695970 -0.924911 66.361404
0.790861 -0.924890 66.359879
0.885745 -0.924866 66.358192
0.984233 -0.928245 66.600616
1.079704 -0.928434 66.614151
1.179362 -0.931901 66.862923
1.306554 -0.954972 68.518265
1.419439 -0.965097 69.244675
1.518767 -0.965284 69.258110
1.617378 -0.965021 69.239258
1.710037 -0.961442 68.982437
1.808614 -0.961399 68.979362
1.907179 -0.961354 68.976135
2.004292 -0.960618 68.923340
2.070543 -0.945853 67.863930
2.135954 -0.932043 66.873116
2.230495 -0.931583 66.840134
2.325957 -0.931530 66.836334
2.412457 -0.928034 66.585503
2.506846 -0.927723 66.563164
2.595271 -0.925308 66.389915
2.696452 -0.927452 66.543686
2.791433 -0.927389 66.539162
2.887065 -0.927539 66.549965
2.993700 -0.931102 66.805611
3.089017 -0.931034 66.800697
3.237467 -0.946503 67.910599
3.371890 -0.957090 68.670189
3.468391 -0.956618 68.636353
3.566259 -0.956539 68.630676
3.663251 -0.956236 68.608902
3.747259 -0.952647 68.351410
3.843005 -0.952149 68.315704
3.901158 -0.942593 67.630043
3.935685 -0.927928 66.577888
4.009482 -0.922997 66.224060
4.103797 -0.922908 66.217651
4.198079 -0.922815 66.210991
4.292345 -0.922723 66.204391
4.386563 -0.922625 66.197350
4.480773 -0.922529 66.190475
4.609805 -0.929458 66.687653
4.754983 -0.939296 67.393509
4.908357 -0.950330 68.185165
5.011455 -0.951389 68.261177
5.108498 -0.951280 68.253380
5.205487 -0.951166 68.245178
5.323212 -0.954775 68.504112
5.439834 -0.958060 68.739769
5.494478 -0.950505 68.197769
5.476978 -0.930952 66.794838
5.523826 -0.922819 66.211327
5.608716 -0.921209 66.095779
5.702468 -0.921083 66.086769
5.809357 -0.923049 66.227814
5.975749 -0.934255 67.031807
6.147039 -0.945860 67.864471
6.245666 -0.946098 67.881516
6.340380 -0.945744 67.856163
6.437405 -0.945741 67.855927
6.532528 -0.945463 67.835953
6.628562 -0.945322 67.825874
6.724564 -0.945181 67.815773
6.820480 -0.945033 67.805099
6.918003 -0.945108 67.810486
7.013852 -0.944955 67.799530
7.113888 -0.945363 67.828804
7.198430 -0.943729 67.711548
7.237839 -0.936299 67.178490
7.226840 -0.922629 66.197670
7.290443 -0.918713 65.916733
7.383483 -0.918560 65.905724
7.476425 -0.918398 65.894127
7.569367 -0.918241 65.882820
7.662266 -0.918082 65.871422
7.755516 -0.917969 65.863281
8.053586 -0.941810 67.573883
8.192674 -0.946715 67.925789
8.288192 -0.946529 67.912445
8.383783 -0.946355 67.900002
8.479323 -0.946180 67.887428
8.574810 -0.946003 67.874725
8.670244 -0.945824 67.861893
8.765482 -0.945628 67.847832
8.895485 -0.949146 68.100220
8.991128 -0.948961 68.086937
9.088580 -0.948969 68.087502
9.171773 -0.947503 67.982361
9.158396 -0.936197 67.171143
9.187421 -0.929415 66.684532
9.280891 -0.929224 66.670876
9.396397 -0.931222 66.814178
9.541449 -0.936077 67.162575
9.638773 -0.936201 67.171417
9.734252 -0.936144 67.167358
9.864378 -0.939388 67.400108
9.959541 -0.939272 67.391769
10.054940 -0.939180 67.385178
10.186427 -0.942429 67.618263
10.280847 -0.942219 67.603226
10.375203 -0.942007 67.588051
10.469496 -0.941794 67.572746
10.563520 -0.941561 67.556007
10.660160 -0.941563 67.556145
10.754280 -0.941344 67.540459
10.848335 -0.941124 67.524643
10.942326 -0.940902 67.508713
11.036025 -0.940659 67.491280
11.129879 -0.940433 67.475082
11.263986 -0.943583 67.701103
11.375395 -0.944794 67.788010
11.530977 -0.949623 68.134460
11.778583 -0.961886 69.014297
11.964335 -0.968935 69.520103
12.139656 -0.975031 69.957458
-14.037679 -0.963499 76.881737
-13.454829 -0.930784 74.271332
-12.853554 -0.896265 71.516869
-12.623705 -0.887298 70.801399
-12.481070 -0.884367 70.567467
-12.339729 -0.881480 70.337090
-12.207822 -0.879225 70.157143
-12.022950 -0.873086 69.667313
-11.767638 -0.861687 68.757713
-11.569740 -0.854335 68.171074
-11.454345 -0.853002 68.064728
-11.359648 -0.853201 68.080597
-11.264882 -0.853398 68.096329
-11.170053 -0.853594 68.111946
-11.075802 -0.853837 68.131401
-11.039988 -0.858630 68.513855
-11.004801 -0.863558 68.907082
-11.061120 -0.875821 69.885567
-11.034633 -0.881691 70.353943
-10.936550 -0.881895 70.370262
-10.864694 -0.884238 70.557213
-10.766084 -0.884427 70.572289
-10.645838 -0.882825 70.444481
-10.450614 -0.874916 69.813362
-10.184860 -0.860892 68.694351
-9.976609 -0.851504 67.945168
-9.834493 -0.847630 67.636086
-9.721727 -0.846234 67.524719
-9.613702 -0.845228 67.444382
