ply
format ascii 1.0
comment generated by convert_depth_to_ply.py
element vertex 1623
property float x
property float y
property float z
end_header
-1.026305 -0.313926 14.122356
-0.994545 -0.313975 14.124565
-0.962771 -0.314023 14.126702
-0.932171 -0.314469 14.146809
-0.900938 -0.314727 14.158404
-0.869059 -0.314770 14.160330
-0.837168 -0.314811 14.162183
-0.805264 -0.314851 14.163963
-0.773348 -0.314889 14.165672
-0.741420 -0.314925 14.167308
-0.709482 -0.314960 14.168872
-0.677533 -0.314993 14.170362
-0.645574 -0.315025 14.171782
-0.613605 -0.315055 14.173128
-0.581628 -0.315083 14.174415
-0.549642 -0.315110 14.175618
-0.517647 -0.315135 14.176744
-0.485645 -0.315158 14.177798
-0.454492 -0.315775 14.205522
-0.422445 -0.315817 14.207410
-0.390214 -0.315717 14.202935
-0.358270 -0.315852 14.209010
-0.326301 -0.315989 14.215178
-0.294421 -0.316252 14.227005
-0.251699 -0.303506 13.653622
-0.219766 -0.302027 13.587061
-0.188714 -0.301473 13.562156
-0.157746 -0.300865 13.534779
-0.127161 -0.300870 13.535017
-0.096574 -0.300874 13.535187
-0.065858 -0.300290 13.508929
-0.035329 -0.300289 13.508904
-0.004810 -0.300889 13.535869
0.026292 -0.306858 13.804393
0.059073 -0.315314 14.184785
0.091304 -0.315919 14.212005
0.123660 -0.316529 14.239451
0.155835 -0.316520 14.239038
0.188008 -0.316509 14.238554
0.220607 -0.317115 14.265831
0.252836 -0.317101 14.265199
0.285044 -0.317068 14.263703
0.316659 -0.316449 14.235875
0.348810 -0.316430 14.235023
0.380955 -0.316410 14.234098
0.413094 -0.316388 14.233107
0.444357 -0.315746 14.204250
0.475531 -0.315133 14.176640
0.507434 -0.315049 14.172859
0.539351 -0.314983 14.169926
0.573940 -0.316398 14.233552
0.529297 -0.276302 12.429800
0.394050 -0.195334 8.787348
0.410941 -0.193934 8.724360
0.430980 -0.194079 8.730894
0.450398 -0.193944 8.724831
0.469914 -0.193861 8.721100
0.489770 -0.193920 8.723718
0.510191 -0.194188 8.735804
0.530893 -0.194540 8.751633
0.550828 -0.194595 8.754126
0.570946 -0.194710 8.759264
0.592422 -0.195264 8.784187
0.616531 -0.196622 8.845270
0.988965 -0.305492 13.742932
1.065944 -0.319245 14.361641
1.100636 -0.319895 14.390872
1.135153 -0.320458 14.416205
1.165470 -0.319837 14.388274
1.197514 -0.319711 14.382602
1.229770 -0.319647 14.379718
1.264478 -0.320207 14.404908
1.296762 -0.320140 14.401913
1.329330 -0.320145 14.402136
1.363931 -0.320628 14.423852
1.396216 -0.320556 14.420636
1.428480 -0.320483 14.417348
1.463577 -0.321035 14.442170
1.495859 -0.320959 14.438733
1.528118 -0.320881 14.435225
1.560353 -0.320801 14.431646
1.592997 -0.320807 14.431917
1.627039 -0.321089 14.444584
1.660153 -0.321180 14.448677
1.693084 -0.321233 14.451059
1.727897 -0.321634 14.469102
1.760107 -0.321544 14.465086
1.792277 -0.321451 14.460887
1.827223 -0.321850 14.478846
1.860189 -0.321893 14.480755
1.895107 -0.322266 14.497526
1.928248 -0.322329 14.500367
1.960431 -0.322232 14.496034
1.992552 -0.322129 14.491391
2.024677 -0.322030 14.486922
2.056736 -0.321923 14.482136
2.089705 -0.321960 14.483799
2.124943 -0.322341 14.500903
2.157008 -0.322235 14.496159
2.192791 -0.322680 14.516174
2.225344 -0.322644 14.514528
2.257333 -0.322527 14.509303
2.289291 -0.322410 14.504037
2.321250 -0.322297 14.498923
2.357436 -0.322765 14.519985
2.389692 -0.322689 14.516597
2.422555 -0.322697 14.516938
2.458251 -0.323077 14.534019
2.490116 -0.322950 14.528299
2.521993 -0.322827 14.522795
2.553782 -0.322697 14.516930
2.590641 -0.323202 14.539675
2.622495 -0.323079 14.534106
2.659396 -0.323572 14.556304
2.691152 -0.323435 14.550143
2.722993 -0.323311 14.544579
2.759991 -0.323796 14.566373
2.791748 -0.323661 14.560310
2.825020 -0.323703 14.562205
2.860665 -0.324013 14.576145
2.892307 -0.323868 14.569599
2.923959 -0.323727 14.563256
2.957429 -0.323788 14.566005
2.992924 -0.324067 14.578559
3.024676 -0.323939 14.572805
3.061975 -0.324401 14.593613
3.093485 -0.324247 14.586683
3.125000 -0.324097 14.579917
3.158824 -0.324187 14.583957
3.194078 -0.324420 14.594448
3.225809 -0.324294 14.588790
3.259530 -0.324369 14.592154
3.294599 -0.324575 14.601426
3.325959 -0.324415 14.594240
3.358686 -0.324391 14.593132
3.391463 -0.324371 14.592263
3.426365 -0.324554 14.600464
3.457529 -0.324382 14.592733
3.492060 -0.324526 14.599224
3.526688 -0.324677 14.605998
3.557865 -0.324510 14.598485
3.588931 -0.324336 14.590656
3.620542 -0.324214 14.585169
3.658098 -0.324621 14.603511
3.689013 -0.324438 14.595251
3.727279 -0.324898 14.615964
3.758185 -0.324715 14.607704
3.789136 -0.324538 14.599763
3.819913 -0.324350 14.591294
3.858180 -0.324795 14.611336
3.889036 -0.324615 14.603211
3.919842 -0.324433 14.595035
3.958201 -0.324874 14.614881
3.988832 -0.324679 14.606105
4.019540 -0.324493 14.597749
4.058113 -0.324941 14.617862
4.088662 -0.324743 14.608980
4.127173 -0.325176 14.628458
4.157786 -0.324985 14.619858
4.188345 -0.324793 14.611206
4.223822 -0.324982 14.619709
4.257328 -0.325017 14.621312
4.293151 -0.325228 14.630786
4.326622 -0.325258 14.632164
4.356927 -0.325052 14.622892
4.392891 -0.325268 14.632610
4.426000 -0.325271 14.632746
4.464913 -0.325698 14.651925
4.495212 -0.325494 14.642759
4.525224 -0.325273 14.632802
4.564308 -0.325702 14.652114
4.603392 -0.326125 14.671145
4.640983 -0.326437 14.685180
4.683275 -0.327073 14.713785
4.697357 -0.325743 14.653984
4.670216 -0.321594 14.467319
4.688855 -0.320633 14.424078
4.718056 -0.320402 14.413704
4.747478 -0.320190 14.404141
4.776790 -0.319973 14.394378
4.797703 -0.319200 14.359607
4.833884 -0.319446 14.370695
4.935566 -0.323989 14.575066
4.996682 -0.325827 14.657723
5.028931 -0.325770 14.655170
5.068455 -0.326182 14.673712
5.098086 -0.325956 14.663558
5.089136 -0.323283 14.543283
5.087086 -0.321079 14.444142
5.115789 -0.320832 14.433026
5.134735 -0.319980 14.394700
-4.941259 -0.272426 13.567416
-4.904869 -0.272108 13.551588
-4.877678 -0.272300 13.561135
-4.850445 -0.272492 13.570687
-4.823144 -0.272682 13.580171
-4.796130 -0.272891 13.590586
-4.768708 -0.273080 13.599973
-4.740424 -0.273221 13.607007
-4.704535 -0.272923 13.592162
-4.677313 -0.273127 13.602324
-4.649761 -0.273314 13.611659
-4.621167 -0.273442 13.618045
-4.585445 -0.273148 13.603371
-4.558020 -0.273347 13.613278
-4.530313 -0.273531 13.622473
-4.502495 -0.273712 13.631457
-4.474624 -0.273891 13.640402
-4.446947 -0.274085 13.650070
-4.417564 -0.274176 13.654596
-4.382425 -0.273909 13.641273
-4.354388 -0.274084 13.650022
-4.326521 -0.274273 13.659431
-4.291604 -0.274015 13.646561
-4.261920 -0.274089 13.650263
-4.233925 -0.274274 13.659468
-4.205668 -0.274445 13.667958
-4.177452 -0.274620 13.676707
-4.149093 -0.274789 13.685115
-4.120862 -0.274969 13.694073
-4.089474 -0.274939 13.692596
-4.056047 -0.274771 13.684219
-4.027534 -0.274936 13.692421
-3.999126 -0.275110 13.701110
-3.970507 -0.275273 13.709204
-3.941947 -0.275442 13.717628
-3.906678 -0.275141 13.702658
-3.877017 -0.275234 13.707273
-3.848250 -0.275392 13.715153
-3.819550 -0.275558 13.723396
-3.790687 -0.275714 13.731187
-3.761891 -0.275878 13.739352
-3.733045 -0.276041 13.747467
-3.704034 -0.276194 13.755103
-3.674974 -0.276347 13.762689
-3.645965 -0.276506 13.770596
-3.616928 -0.276665 13.778533
-3.587723 -0.276814 13.785962
-3.558472 -0.276962 13.793340
-3.526157 -0.276872 13.788870
-3.493202 -0.276730 13.781795
-3.463866 -0.276875 13.788998
-3.434519 -0.277021 13.796288
-3.405153 -0.277169 13.803635
-3.375711 -0.277313 13.810805
-3.346253 -0.277458 13.818047
-3.316717 -0.277600 13.825097
-3.287197 -0.277745 13.832348
-3.252992 -0.277494 13.819838
-3.221631 -0.277483 13.819280
-3.191945 -0.277617 13.825970
-3.162300 -0.277758 13.832972
-3.132528 -0.277890 13.839551
-3.102794 -0.278028 13.846433
-3.072936 -0.278158 13.852898
-3.043115 -0.278294 13.859659
-3.013174 -0.278421 13.866012
-2.983266 -0.278555 13.872651
-2.953241 -0.278680 13.878885
-2.923249 -0.278811 13.885405
-2.893143 -0.278934 13.891523
-2.863067 -0.279062 13.897917
-2.827958 -0.278697 13.879754
-2.797255 -0.278763 13.883046
-2.767109 -0.278887 13.889213
-2.736870 -0.279005 13.895050
-2.706646 -0.279126 13.901099
-2.676330 -0.279241 13.906806
-2.646029 -0.279360 13.912737
-2.615637 -0.279472 13.918317
-2.583991 -0.279451 13.917288
-2.549824 -0.279154 13.902482
-2.523034 -0.279667 13.928033
-2.488937 -0.279373 13.913383
-2.458473 -0.279484 13.918925
-2.427923 -0.279588 13.924115
-2.397387 -0.279697 13.929529
-2.366768 -0.279799 13.934594
-2.336163 -0.279905 13.939876
-2.305481 -0.280004 13.944844
-2.274802 -0.280107 13.949965
-2.244056 -0.280205 13.954814
-2.213309 -0.280305 13.959795
-2.182500 -0.280399 13.964522
-2.151688 -0.280497 13.969363
-2.120817 -0.280589 13.973969
-2.089940 -0.280684 13.978669
-2.059009 -0.280774 13.983150
-2.028070 -0.280865 13.987711
-1.997081 -0.280953 13.992068
-1.966081 -0.281041 13.996487
-1.935035 -0.281126 14.000718
-1.903976 -0.281212 14.004995
-1.872875 -0.281295 14.009099
-1.841759 -0.281378 14.013235
-1.810623 -0.281460 14.017360
-1.779437 -0.281538 14.021236
-1.748235 -0.281616 14.025121
-1.717006 -0.281693 14.028935
-1.685752 -0.281768 14.032682
-1.654473 -0.281842 14.036361
-1.623170 -0.281914 14.039971
-1.591842 -0.281986 14.043511
-1.560490 -0.282055 14.046983
-1.529116 -0.282124 14.050385
-1.497718 -0.282190 14.053718
-1.466299 -0.282256 14.056984
-1.434857 -0.282320 14.060177
-1.403394 -0.282383 14.063301
-1.372236 -0.282511 14.069696
-1.341741 -0.282785 14.083349
-1.308885 -0.282563 14.072292
-1.277341 -0.282621 14.075135
-1.247922 -0.283163 14.102129
-1.216570 -0.283283 14.108135
-1.184908 -0.283336 14.110771
-1.153229 -0.283388 14.113336
-1.121532 -0.283438 14.115829
-1.089499 -0.283403 14.114118
-1.057881 -0.283478 14.117826
-1.026343 -0.283579 14.122884
-0.994582 -0.283624 14.125093
-0.964184 -0.284072 14.147446
-0.932837 -0.284263 14.156917
-0.900972 -0.284303 14.158933
-0.869092 -0.284342 14.160858
-0.837199 -0.284379 14.162711
-0.805294 -0.284415 14.164493
-0.773377 -0.284449 14.166202
-0.741448 -0.284482 14.167837
-0.709508 -0.284513 14.169401
-0.677558 -0.284543 14.170894
-0.645598 -0.284572 14.172312
-0.613628 -0.284599 14.173658
-0.581650 -0.284625 14.174945
-0.549662 -0.284649 14.176147
-0.517667 -0.284671 14.177275
-0.485664 -0.284693 14.178329
-0.453653 -0.284712 14.179310
-0.422251 -0.285146 14.200897
-0.389690 -0.284803 14.183832
-0.358199 -0.285252 14.206164
-0.326755 -0.285830 14.234976
-0.290894 -0.282248 14.056590
-0.250890 -0.273276 13.609750
-0.219774 -0.272831 13.587571
-0.188704 -0.272306 13.561439
-0.157766 -0.271806 13.536526
-0.127166 -0.271785 13.535523
-0.096578 -0.271789 13.535693
-0.065989 -0.271791 13.535792
-0.035399 -0.271791 13.535821
-0.004822 -0.272518 13.572014
0.026942 -0.284042 14.145948
0.059189 -0.285385 14.212800
0.091360 -0.285543 14.220698
0.123664 -0.285931 14.239985
0.155841 -0.285922 14.239573
0.188133 -0.286092 14.248042
0.220616 -0.286460 14.266367
0.252845 -0.286448 14.265734
0.284637 -0.285998 14.243360
0.316671 -0.285859 14.236408
0.348823 -0.285842 14.235557
0.380970 -0.285823 14.234630
0.413073 -0.285778 14.232383
0.444332 -0.285197 14.203441
0.475696 -0.284757 14.181554
0.507341 -0.284531 14.170261
0.539885 -0.284806 14.183954
0.570062 -0.283870 14.137386
0.391173 -0.184453 9.186154
0.392011 -0.175532 8.741880
0.410348 -0.174927 8.711760
0.430592 -0.175153 8.723032
0.449372 -0.174790 8.704954
0.468985 -0.174768 8.703852
0.488590 -0.174745 8.702704
0.508527 -0.174838 8.707308
0.528809 -0.175038 8.717281
0.548994 -0.175192 8.724972
0.569571 -0.175457 8.738166
0.590056 -0.175677 8.749100
0.611256 -0.176088 8.769580
0.836705 -0.233465 11.627088
1.067669 -0.288840 14.384879
1.102160 -0.289360 14.410793
1.135195 -0.289480 14.416742
1.167556 -0.289425 14.414036
1.199065 -0.289168 14.401229
1.231307 -0.289097 14.397684
1.264525 -0.289253 14.405443
1.296811 -0.289193 14.402449
1.330448 -0.289430 14.414247
1.363982 -0.289633 14.424387
1.396268 -0.289569 14.421171
1.428533 -0.289503 14.417883
1.463631 -0.290001 14.442705
1.495914 -0.289932 14.439268
1.528174 -0.289862 14.435760
1.560411 -0.289790 14.432180
1.595737 -0.290283 14.456738
1.627988 -0.290208 14.453010
1.660214 -0.290132 14.449212
1.695723 -0.290621 14.473584
1.727961 -0.290542 14.469636
1.760172 -0.290461 14.465619
1.792343 -0.290377 14.461421
1.828080 -0.290863 14.485639
1.860258 -0.290776 14.481289
1.896137 -0.291260 14.505404
1.928319 -0.291170 14.500901
1.960503 -0.291083 14.496567
1.992626 -0.290989 14.491923
2.025547 -0.291014 14.493145
2.060833 -0.291372 14.510982
2.092961 -0.291279 14.506371
2.125021 -0.291180 14.501435
2.160803 -0.291587 14.521663
2.193361 -0.291552 14.519945
2.225426 -0.291454 14.515060
2.257415 -0.291349 14.509833
2.289375 -0.291243 14.504566
2.325545 -0.291669 14.525749
2.357824 -0.291601 14.522376
2.390881 -0.291630 14.523820
2.426392 -0.291953 14.539931
2.458341 -0.291845 14.534547
2.490207 -0.291730 14.528828
2.522085 -0.291620 14.523322
2.553874 -0.291502 14.517457
2.590735 -0.291959 14.540203
2.627637 -0.292409 14.562604
2.659492 -0.292293 14.556831
2.691250 -0.292169 14.550671
2.723311 -0.292081 14.546282
2.760092 -0.292495 14.566901
2.791849 -0.292373 14.560837
2.827756 -0.292684 14.576306
2.860768 -0.292691 14.576670
2.892411 -0.292560 14.570125
2.924611 -0.292487 14.566502
2.961402 -0.292870 14.585573
2.993031 -0.292739 14.579082
3.029227 -0.293054 14.594733
3.062085 -0.293042 14.594137
3.093596 -0.292903 14.587205
3.125111 -0.292767 14.580438
3.162706 -0.293197 14.601881
3.194193 -0.293059 14.594970
3.228322 -0.293163 14.600155
3.263350 -0.293345 14.609253
3.294717 -0.293199 14.601948
3.326537 -0.293095 14.596776
3.363916 -0.293478 14.615857
3.395179 -0.293325 14.608251
3.427024 -0.293225 14.603271
3.461023 -0.293310 14.607481
3.495685 -0.293448 14.614382
3.526813 -0.293290 14.606515
3.557991 -0.293139 14.599000
3.589057 -0.292982 14.591170
3.623918 -0.293135 14.598768
3.658227 -0.293240 14.604026
3.689904 -0.293135 14.598777
3.727410 -0.293490 14.616478
3.758317 -0.293325 14.608217
3.789268 -0.293165 14.600274
3.823523 -0.293262 14.605086
3.858314 -0.293397 14.611846
3.889172 -0.293234 14.603721
3.923834 -0.293358 14.609898
3.958339 -0.293469 14.615390
3.988971 -0.293292 14.606613
4.019680 -0.293124 14.598256
4.057355 -0.293463 14.615131
4.088804 -0.293350 14.609487
4.127316 -0.293741 14.628965
4.157930 -0.293568 14.620363
4.188490 -0.293395 14.611711
4.223967 -0.293565 14.620213
4.257475 -0.293598 14.621817
4.293299 -0.293788 14.631291
4.326771 -0.293815 14.632668
4.357077 -0.293629 14.623394
4.393743 -0.293871 14.635449
4.427670 -0.293928 14.638266
4.465066 -0.294212 14.652427
4.495365 -0.294028 14.643260
4.532431 -0.294286 14.656107
4.571073 -0.294642 14.673829
4.603548 -0.294598 14.671643
4.649743 -0.295426 14.712899
4.688980 -0.295804 14.731709
4.697516 -0.294253 14.654480
4.668059 -0.290361 14.460635
4.689013 -0.289637 14.424564
4.718215 -0.289429 14.414190
4.747638 -0.289237 14.404627
4.771020 -0.288682 14.376989
4.796883 -0.288283 14.357153
4.834046 -0.288565 14.371178
4.938964 -0.292860 14.585099
4.989988 -0.293924 14.638087
5.029099 -0.294277 14.655659
5.067913 -0.294608 14.672143
5.088899 -0.293905 14.637136
5.079376 -0.291461 14.515391
5.096859 -0.290587 14.471889
5.115959 -0.289816 14.433507
5.134905 -0.289047 14.395178
-4.941402 -0.243269 13.567808
-4.905011 -0.242985 13.551980
-4.877819 -0.243156 13.561529
-4.850585 -0.243327 13.571080
-4.823285 -0.243497 13.580565
-4.796270 -0.243684 13.590982
-4.768847 -0.243852 13.600370
-4.732149 -0.243546 13.583256
-4.704672 -0.243712 13.592559
-4.677449 -0.243895 13.602722
-4.649897 -0.244062 13.612057
-4.621885 -0.244207 13.620161
-4.585580 -0.243913 13.603770
-4.558154 -0.244091 13.613679
-4.530446 -0.244256 13.622873
-4.502628 -0.244417 13.631860
-4.474756 -0.244577 13.640804
-4.447079 -0.244751 13.650475
-4.419163 -0.244913 13.659539
-4.382555 -0.244593 13.641678
-4.354518 -0.244750 13.650428
-4.326649 -0.244919 13.659837
-4.294511 -0.244846 13.655805
-4.262047 -0.244754 13.650670
-4.234051 -0.244919 13.659876
-4.205794 -0.245072 13.668366
-4.177577 -0.245228 13.677115
-4.149217 -0.245379 13.685524
-4.120985 -0.245540 13.694484
-4.084532 -0.245209 13.676049
-4.056169 -0.245363 13.684631
-4.027655 -0.245510 13.692833
-3.999248 -0.245666 13.701525
-3.970628 -0.245811 13.709619
-3.942066 -0.245962 13.718042
-3.908757 -0.245817 13.709949
-3.877134 -0.245777 13.707688
-3.848367 -0.245918 13.715569
-3.819666 -0.246066 13.723813
-3.790802 -0.246205 13.731604
-3.762006 -0.246352 13.739772
-3.733159 -0.246497 13.747886
-3.704147 -0.246634 13.755524
-3.675086 -0.246770 13.763110
-3.646077 -0.246912 13.771018
-3.617039 -0.247054 13.778955
-3.587833 -0.247188 13.786385
-3.558581 -0.247320 13.793763
-3.528172 -0.247373 13.796750
-3.493309 -0.247113 13.782218
-3.463972 -0.247242 13.789421
-3.434625 -0.247373 13.796713
-3.405258 -0.247504 13.804060
-3.375815 -0.247633 13.811231
-3.346357 -0.247763 13.818474
-3.316820 -0.247889 13.825525
-3.287299 -0.248019 13.832777
-3.253093 -0.247795 13.820267
-3.221731 -0.247785 13.819709
-3.192044 -0.247905 13.826401
-3.162398 -0.248031 13.833402
-3.132625 -0.248149 13.839981
-3.102891 -0.248272 13.846864
-3.073032 -0.248388 13.853330
-3.043210 -0.248509 13.860092
-3.013268 -0.248623 13.866444
-2.983359 -0.248742 13.873085
-2.953334 -0.248854 13.879321
-2.923340 -0.248971 13.885839
-2.893234 -0.249081 13.891960
-2.863157 -0.249195 13.898353
-2.827874 -0.248854 13.879341
-2.797343 -0.248929 13.883483
-2.767196 -0.249039 13.889649
-2.736956 -0.249144 13.895488
-2.706732 -0.249252 13.901537
-2.676414 -0.249355 13.907246
-2.646113 -0.249461 13.913176
-2.615719 -0.249561 13.918756
-2.580298 -0.249178 13.897397
-2.549889 -0.249276 13.902838
-2.519498 -0.249377 13.908509
-2.489016 -0.249473 13.913824
-2.458551 -0.249572 13.919367
-2.428000 -0.249665 13.924560
-2.397463 -0.249762 13.929971
-2.366844 -0.249853 13.935040
-2.336237 -0.249948 13.940318
-2.305555 -0.250037 13.945289
-2.274875 -0.250128 13.950409
-2.244128 -0.250215 13.955259
-2.213380 -0.250305 13.960239
-2.182570 -0.250390 13.964969
-2.151756 -0.250476 13.969810
-2.120885 -0.250559 13.974416
-2.090007 -0.250643 13.979116
-2.059075 -0.250724 13.983599
-2.028135 -0.250805 13.988159
-1.997145 -0.250883 13.992517
-1.966144 -0.250963 13.996936
-1.935097 -0.251039 14.001168
-1.904037 -0.251115 14.005446
-1.872935 -0.251189 14.009550
-1.841818 -0.251263 14.013685
-1.810682 -0.251337 14.017813
-1.779495 -0.251407 14.021689
-1.748291 -0.251476 14.025573
-1.717061 -0.251545 14.029387
-1.685807 -0.251612 14.033136
-1.654526 -0.251678 14.036814
-1.623222 -0.251742 14.040424
-1.591893 -0.251806 14.043964
-1.560541 -0.251868 14.047437
-1.529165 -0.251929 14.050838
-1.497767 -0.251989 14.054173
-1.466346 -0.252048 14.057438
-1.434904 -0.252105 14.060632
-1.403440 -0.252161 14.063756
-1.372870 -0.252384 14.076189
-1.340833 -0.252341 14.073815
-1.308928 -0.252322 14.072749
-1.277383 -0.252373 14.075592
-1.245818 -0.252423 14.078363
-1.214236 -0.252471 14.081066
-1.184284 -0.252870 14.103332
-1.151016 -0.252564 14.086257
-1.119380 -0.252609 14.088746
-1.087728 -0.252652 14.091164
-1.057304 -0.252992 14.110129
-1.026377 -0.253229 14.123344
-0.995836 -0.253580 14.142900
-0.964720 -0.253802 14.155310
-0.932867 -0.253839 14.157380
-0.901001 -0.253876 14.159394
-0.869120 -0.253910 14.161320
-0.837226 -0.253943 14.163173
-0.805320 -0.253975 14.164955
-0.773713 -0.254108 14.172350
-0.741472 -0.254035 14.168300
-0.709532 -0.254063 14.169864
-0.677580 -0.254090 14.171356
-0.645619 -0.254115 14.172774
-0.613648 -0.254140 14.174121
-0.581669 -0.254163 14.175408
-0.549680 -0.254184 14.176611
-0.517684 -0.254204 14.177738
-0.485679 -0.254223 14.178793
-0.453668 -0.254241 14.179774
-0.421650 -0.254257 14.180682
-0.389626 -0.254272 14.181520
-0.358210 -0.254722 14.206630
-0.326786 -0.255255 14.236315
-0.284482 -0.246477 13.746775
-0.250552 -0.243692 13.591409
-0.219782 -0.243631 13.588017
-0.188710 -0.243162 13.561882
-0.157757 -0.242693 13.535729
-0.127170 -0.242698 13.535968
-0.096581 -0.242701 13.536137
-0.065991 -0.242702 13.536236
-0.035400 -0.242703 13.536287
-0.004848 -0.244654 13.645059
0.027034 -0.254500 14.194235
0.059196 -0.254862 14.214394
0.091489 -0.255335 14.240789
0.123669 -0.255329 14.240450
0.155951 -0.255493 14.249577
0.188388 -0.255812 14.267393
0.220623 -0.255802 14.266832
0.252853 -0.255791 14.266200
0.285008 -0.255714 14.261927
0.316682 -0.255265 14.236875
0.348835 -0.255250 14.236023
0.380982 -0.255233 14.235097
0.412790 -0.255009 14.222610
0.443521 -0.254201 14.177529
0.475712 -0.254281 14.182016
0.508068 -0.254435 14.190583
0.537715 -0.253293 14.126922
0.529889 -0.235618 13.141115
0.374970 -0.157884 8.805649
0.391040 -0.156352 8.720223
0.409312 -0.155806 8.689764
0.428830 -0.155763 8.687341
0.448230 -0.155682 8.682839
0.467142 -0.155445 8.669647
0.486670 -0.155425 8.668505
0.506432 -0.155477 8.671436
0.526731 -0.155685 8.683023
0.547342 -0.155967 8.698719
0.567333 -0.156058 8.703824
0.588273 -0.156396 8.722655
0.611155 -0.157211 8.768130
0.817973 -0.203804 11.366781
1.070455 -0.258591 14.422407
1.104421 -0.258913 14.440361
1.137741 -0.259069 14.449068
1.167944 -0.258527 14.418825
1.199938 -0.258400 14.411725
1.232260 -0.258348 14.408834
1.264566 -0.258296 14.405910
1.296853 -0.258242 14.402915
1.330491 -0.258453 14.414715
1.364026 -0.258635 14.424855
1.396313 -0.258578 14.421638
1.428579 -0.258519 14.418350
1.463679 -0.258964 14.443172
1.495963 -0.258902 14.439735
1.528224 -0.258839 14.436227
1.560461 -0.258775 14.432647
1.595789 -0.259215 14.457206
1.628041 -0.259148 14.453477
1.662711 -0.259462 14.470940
1.695778 -0.259517 14.474051
1.728016 -0.259447 14.470102
1.760229 -0.259374 14.466085
1.792400 -0.259299 14.461886
1.828139 -0.259733 14.486105
1.860318 -0.259655 14.481754
1.895513 -0.259994 14.500634
1.928381 -0.260007 14.501367
1.960566 -0.259929 14.497033
1.992690 -0.259846 14.492389
2.027048 -0.260052 14.503888
2.060899 -0.260188 14.511447
2.093028 -0.260105 14.506835
2.125089 -0.260017 14.501900
2.161373 -0.260440 14.525496
2.193431 -0.260349 14.520411
2.225497 -0.260261 14.515524
2.257487 -0.260167 14.510297
2.289448 -0.260073 14.505030
2.325947 -0.260489 14.528261
2.357899 -0.260392 14.522839
2.389855 -0.260298 14.517589
2.426469 -0.260707 14.540393
2.458419 -0.260610 14.535009
2.490286 -0.260508 14.529289
2.522165 -0.260409 14.523783
2.553955 -0.260304 14.517918
2.590817 -0.260712 14.540663
2.627720 -0.261113 14.563065
2.659576 -0.261010 14.557291
2.691335 -0.260899 14.551130
2.723114 -0.260794 14.545230
2.758735 -0.261054 14.559741
2.791936 -0.261082 14.561295
2.824100 -0.261013 14.557463
2.860858 -0.261365 14.577129
2.892502 -0.261248 14.570582
2.924156 -0.261134 14.564239
2.961495 -0.261525 14.586031
2.993125 -0.261409 14.579541
3.025642 -0.261371 14.577458
3.062181 -0.261679 14.594594
3.093693 -0.261554 14.587662
3.125565 -0.261463 14.582556
3.162805 -0.261817 14.602336
3.194700 -0.261727 14.597290
3.231995 -0.262076 14.616764
3.263451 -0.261950 14.609708
3.294819 -0.261819 14.602399
3.329336 -0.261938 14.609057
3.364021 -0.262068 14.616312
3.395284 -0.261932 14.608702
3.433292 -0.262313 14.629981
3.464519 -0.262174 14.622233
3.495794 -0.262042 14.614834
3.526922 -0.261900 14.606965
3.558101 -0.261766 14.599450
3.591821 -0.261819 14.602406
3.627247 -0.261994 14.612180
3.658340 -0.261856 14.604475
3.692253 -0.261920 14.608071
3.727524 -0.262079 14.616926
3.758431 -0.261931 14.608664
3.789384 -0.261788 14.600720
3.823640 -0.261875 14.605533
3.858432 -0.261996 14.612292
3.889291 -0.261850 14.604166
3.923953 -0.261961 14.610342
3.958459 -0.262059 14.615834
3.989092 -0.261902 14.607057
4.019801 -0.261752 14.598699
4.054838 -0.261884 14.606065
4.088928 -0.261954 14.609929
4.124042 -0.262087 14.617363
4.158055 -0.262149 14.620805
4.188616 -0.261993 14.612152
4.222638 -0.262055 14.615612
4.257603 -0.262175 14.622256
4.291887 -0.262250 14.626481
4.326901 -0.262369 14.633106
4.357208 -0.262203 14.623834
4.395934 -0.262542 14.642748
4.432260 -0.262734 14.653440
4.465199 -0.262723 14.652864
4.495499 -0.262559 14.643697
4.534360 -0.262893 14.662347
4.571209 -0.263107 14.674267
4.603685 -0.263068 14.672080
4.649881 -0.263808 14.713336
4.689119 -0.264145 14.732145
4.695578 -0.262644 14.648433
4.661399 -0.258907 14.440004
4.685323 -0.258427 14.413214
4.718355 -0.258452 14.414616
4.747778 -0.258280 14.405050
4.777091 -0.258105 14.395286
4.797024 -0.257429 14.357575
4.836569 -0.257807 14.378678
4.946574 -0.261911 14.607573
4.989864 -0.262452 14.637723
5.029246 -0.262781 14.656088
5.065427 -0.262940 14.664947
5.088878 -0.262440 14.637074
5.088986 -0.260751 14.542853
5.097350 -0.259504 14.473284
5.116107 -0.258798 14.433926
5.135053 -0.258111 14.395594
-4.941524 -0.214109 13.568143
-4.905132 -0.213859 13.552315
-4.877940 -0.214010 13.561865
-4.850706 -0.214160 13.571418
-4.823404 -0.214310 13.580903
-4.796389 -0.214474 13.591320
-4.768966 -0.214623 13.600709
-4.732267 -0.214352 13.583594
-4.704790 -0.214499 13.592897
-4.677567 -0.214660 13.603064
-4.650014 -0.214807 13.612399
-4.621502 -0.214912 13.619032
-4.585695 -0.214676 13.604113
-4.558270 -0.214833 13.614023
-4.530561 -0.214978 13.623217
-4.502742 -0.215120 13.632203
-4.474869 -0.215261 13.641149
-4.447191 -0.215413 13.650820
-4.419274 -0.215556 13.659883
-4.382667 -0.215275 13.642025
-4.354628 -0.215413 13.650774
-4.326759 -0.215561 13.660184
-4.290303 -0.215281 13.642424
-4.262156 -0.215416 13.651019
-4.234160 -0.215562 13.660225
-4.205902 -0.215696 13.668716
-4.177684 -0.215834 13.677466
-4.149324 -0.215966 13.685876
-4.121091 -0.216108 13.694835
-4.086256 -0.215903 13.681823
-4.056273 -0.215952 13.684983
-4.027759 -0.216082 13.693186
-3.999351 -0.216219 13.701878
-3.970730 -0.216347 13.709971
-3.942168 -0.216480 13.718397
-3.908718 -0.216344 13.709812
-3.877235 -0.216316 13.708043
-3.848467 -0.216441 13.715925
-3.819765 -0.216571 13.724170
-3.790901 -0.216694 13.731962
-3.762104 -0.216823 13.740129
-3.733256 -0.216951 13.748243
-3.704243 -0.217071 13.755882
-3.675182 -0.217191 13.763470
-3.646172 -0.217316 13.771378
-3.617134 -0.217441 13.779316
-3.587927 -0.217558 13.786745
-3.558674 -0.217675 13.794125
-3.529456 -0.217795 13.801772
-3.495585 -0.217628 13.791196
-3.464063 -0.217606 13.789783
-3.434715 -0.217721 13.797077
-3.405348 -0.217837 13.804424
-3.375904 -0.217950 13.811596
-3.346445 -0.218065 13.818840
-3.316907 -0.218176 13.825891
-3.287386 -0.218290 13.833142
-3.253179 -0.218093 13.820633
-3.221816 -0.218084 13.820074
-3.192129 -0.218190 13.826767
-3.162483 -0.218300 13.833770
-3.132709 -0.218404 13.840350
-3.102973 -0.218513 13.847233
-3.073114 -0.218615 13.853699
-3.043291 -0.218722 13.860462
-3.013348 -0.218822 13.866814
-2.983438 -0.218927 13.873455
-2.953413 -0.219025 13.879692
-2.923419 -0.219128 13.886211
-2.893312 -0.219224 13.892331
-2.863234 -0.219325 13.898726
-2.827519 -0.218992 13.877598
-2.797418 -0.219091 13.883858
-2.767270 -0.219188 13.890023
-2.737030 -0.219280 13.895862
-2.706805 -0.219376 13.901912
-2.676486 -0.219466 13.907621
-2.646184 -0.219559 13.913552
-2.615790 -0.219647 13.919132
-2.580368 -0.219310 13.897774
-2.549958 -0.219396 13.903214
-2.519566 -0.219486 13.908887
-2.489084 -0.219570 13.914202
-2.458618 -0.219657 13.919745
-2.428066 -0.219739 13.924936
-2.397529 -0.219824 13.930349
-2.366908 -0.219904 13.935417
-2.336300 -0.219988 13.940699
-2.305618 -0.220066 13.945669
-2.274937 -0.220147 13.950789
-2.244189 -0.220223 13.955639
-2.213440 -0.220302 13.960621
-2.182630 -0.220377 13.965350
-2.151815 -0.220453 13.970191
-2.120943 -0.220526 13.974797
-2.090064 -0.220600 13.979499
-2.059132 -0.220671 13.983982
-2.028190 -0.220743 13.988543
-1.997200 -0.220811 13.992901
-1.966198 -0.220881 13.997320
-1.935150 -0.220948 14.001552
-1.904089 -0.221015 14.005830
-1.872986 -0.221080 14.009935
-1.841869 -0.221145 14.014071
-1.810731 -0.221211 14.018197
-1.779543 -0.221272 14.022075
-1.748339 -0.221333 14.025959
-1.717109 -0.221393 14.029775
-1.685853 -0.221452 14.033523
-1.654572 -0.221510 14.037201
-1.623267 -0.221567 14.040812
-1.591937 -0.221623 14.044353
-1.560584 -0.221678 14.047825
-1.529208 -0.221732 14.051229
-1.497808 -0.221784 14.054563
-1.466791 -0.221897 14.061698
-1.435434 -0.221962 14.065827
-1.403479 -0.221936 14.064146
-1.371993 -0.221984 14.067202
-1.340487 -0.222031 14.070186
-1.308964 -0.222078 14.073139
-1.277418 -0.222122 14.075983
-1.245853 -0.222166 14.078755
-1.214269 -0.222209 14.081457
-1.182668 -0.222250 14.084087
-1.151048 -0.222291 14.086648
-1.119411 -0.222330 14.089138
-1.087758 -0.222368 14.091557
-1.057595 -0.222723 14.114017
-1.025765 -0.222737 14.114927
-0.994853 -0.222958 14.128938
-0.963545 -0.223102 14.138062
-0.932311 -0.223274 14.148943
-0.901824 -0.223643 14.172325
-0.869688 -0.223615 14.170566
-0.837250 -0.223505 14.163568
-0.806599 -0.223881 14.187449
-0.774199 -0.223784 14.181270
-0.742943 -0.224023 14.196397
-0.710939 -0.224047 14.197963
-0.678924 -0.224071 14.199457
-0.646242 -0.223866 14.186446
-0.613665 -0.223677 14.174518
-0.581685 -0.223698 14.175804
-0.549696 -0.223717 14.177008
-0.517698 -0.223734 14.178135
-0.485693 -0.223751 14.179189
-0.453681 -0.223767 14.180169
-0.421662 -0.223781 14.181080
-0.389637 -0.223794 14.181915
-0.358220 -0.224190 14.207026
-0.327232 -0.224959 14.255747
-0.281801 -0.214883 13.617205
-0.250488 -0.214421 13.587945
-0.219380 -0.214030 13.563178
-0.188605 -0.213890 13.554303
-0.157761 -0.213603 13.536106
-0.127173 -0.213607 13.536346
-0.096584 -0.213610 13.536515
-0.065993 -0.213611 13.536614
-0.035402 -0.213614 13.536809
-0.004919 -0.218444 13.842907
0.027055 -0.224162 14.205237
0.059308 -0.224734 14.241451
0.091555 -0.224886 14.251093
0.123991 -0.225304 14.277607
0.156253 -0.225298 14.277194
0.188512 -0.225290 14.276710
0.221060 -0.225581 14.295124
0.253316 -0.225536 14.292295
0.285243 -0.225242 14.273666
0.316888 -0.224808 14.246171
0.348844 -0.224654 14.236419
0.380487 -0.224341 14.216598
0.412329 -0.224186 14.206728
0.443534 -0.223731 14.177924
0.475901 -0.223885 14.187674
0.511997 -0.225663 14.300323
0.539559 -0.223691 14.175375
0.453791 -0.177589 11.253896
0.373241 -0.138314 8.765030
0.389744 -0.137151 8.691335
0.407956 -0.136672 8.660975
0.427212 -0.136571 8.654565
0.446537 -0.136500 8.650029
0.465503 -0.136329 8.639223
0.484756 -0.136253 8.634397
0.504535 -0.136325 8.638964
0.524659 -0.136481 8.648858
0.544513 -0.136559 8.653768
0.565100 -0.136808 8.669578
0.585758 -0.137057 8.685372
0.606433 -0.137294 8.700383
0.808558 -0.177306 11.235951
1.070199 -0.227535 14.418957
1.106377 -0.228276 14.465935
1.139707 -0.228404 14.474040
1.170641 -0.228058 14.452113
1.200363 -0.227501 14.416825
1.232294 -0.227381 14.409233
1.264601 -0.227335 14.406310
1.296889 -0.227288 14.403314
1.331754 -0.227684 14.428399
1.364064 -0.227634 14.425254
1.396352 -0.227583 14.422036
1.429124 -0.227612 14.423846
1.463719 -0.227923 14.443572
1.496004 -0.227869 14.440134
1.528266 -0.227814 14.436625
1.562383 -0.228031 14.450417
1.595833 -0.228145 14.457604
1.630490 -0.228423 14.475224
1.663559 -0.228472 14.478327
1.696530 -0.228505 14.480470
1.729144 -0.228491 14.479547
1.762994 -0.228637 14.488813
1.795954 -0.228665 14.490560
1.829332 -0.228743 14.495557
1.863333 -0.228896 14.505231
1.897127 -0.229018 14.512981
1.929639 -0.228984 14.510827
1.963842 -0.229149 14.521252
1.996640 -0.229147 14.521118
2.028830 -0.229076 14.516640
2.060956 -0.229000 14.511845
2.094153 -0.229044 14.514627
2.129302 -0.229297 14.530648
2.161432 -0.229222 14.525893
2.193491 -0.229142 14.520806
2.225557 -0.229065 14.515918
2.257549 -0.228982 14.510693
2.293986 -0.229347 14.533783
2.326011 -0.229266 14.528657
2.362309 -0.229603 14.549998
2.394593 -0.229545 14.546368
2.426535 -0.229457 14.540789
2.458486 -0.229372 14.535404
2.490354 -0.229282 14.529682
2.522233 -0.229195 14.524178
2.558986 -0.229548 14.546513
2.592517 -0.229606 14.550205
2.627791 -0.229815 14.563459
2.659648 -0.229724 14.557684
2.691407 -0.229627 14.551522
2.723278 -0.229541 14.546105
2.760253 -0.229883 14.567753
2.793757 -0.229931 14.570788
2.829196 -0.230135 14.583732
2.861120 -0.230052 14.578460
2.894387 -0.230077 14.580080
2.926062 -0.229977 14.573731
2.961834 -0.230198 14.587704
2.995076 -0.230219 14.589044
3.027300 -0.230162 14.585447
3.064176 -0.230456 14.604106
3.095709 -0.230347 14.597168
3.130047 -0.230446 14.603465
3.164866 -0.230579 14.611853
3.197343 -0.230539 14.609363
3.232081 -0.230662 14.617153
3.265578 -0.230695 14.619228
3.301896 -0.230924 14.633766
3.334855 -0.230917 14.633274
3.367513 -0.230888 14.631483
3.402012 -0.230986 14.637650
3.433382 -0.230871 14.630367
3.464610 -0.230749 14.622620
3.495886 -0.230632 14.615220
3.527015 -0.230508 14.607350
3.558194 -0.230389 14.599834
3.596280 -0.230716 14.620533
3.627343 -0.230590 14.612564
3.658435 -0.230468 14.604857
3.693698 -0.230609 14.613786
3.727622 -0.230665 14.617310
3.758530 -0.230534 14.609047
3.789483 -0.230409 14.601103
3.821375 -0.230342 14.596878
3.858533 -0.230592 14.612674
3.889392 -0.230463 14.604547
3.921433 -0.230407 14.600957
3.958561 -0.230647 14.616213
3.989196 -0.230509 14.607436
4.019906 -0.230377 14.599077
4.054943 -0.230493 14.606444
4.089034 -0.230554 14.610308
4.127547 -0.230862 14.629786
4.158162 -0.230726 14.621181
4.188724 -0.230589 14.612528
4.219125 -0.230446 14.603454
4.257712 -0.230749 14.622633
4.293538 -0.230898 14.632107
4.327012 -0.230920 14.633483
4.357319 -0.230774 14.624207
4.396047 -0.231072 14.643123
4.432373 -0.231241 14.653814
4.465313 -0.231232 14.653237
4.495614 -0.231087 14.644070
4.534476 -0.231381 14.662720
4.571325 -0.231569 14.674640
4.605969 -0.231644 14.679358
4.649999 -0.232186 14.713710
4.689238 -0.232483 14.732519
4.692848 -0.231021 14.639916
4.661517 -0.227873 14.440370
4.680120 -0.227191 14.397207
4.718473 -0.227472 14.414978
4.747897 -0.227321 14.405414
4.777212 -0.227167 14.395648
4.797145 -0.226572 14.357937
4.842610 -0.227182 14.396637
4.948085 -0.230582 14.612035
4.989316 -0.230961 14.636114
5.029371 -0.231282 14.656452
5.059007 -0.231123 14.646359
5.088583 -0.230963 14.636225
5.089112 -0.229496 14.543215
5.097475 -0.228398 14.473640
5.116234 -0.227777 14.434283
5.135180 -0.227172 14.395949
-4.941625 -0.184947 13.568420
-4.905233 -0.184731 13.552593
-4.878040 -0.184861 13.562142
-4.850805 -0.184991 13.571696
-4.823503 -0.185120 13.581182
-4.796488 -0.185262 13.591599
-4.769065 -0.185390 13.600990
-4.740779 -0.185486 13.608026
-4.704887 -0.185284 13.593179
-4.677663 -0.185423 13.603345
-4.650111 -0.185550 13.612681
-4.622461 -0.185675 13.621858
-4.588466 -0.185545 13.612333
-4.558364 -0.185572 13.614305
-4.530655 -0.185697 13.623501
-4.502836 -0.185820 13.632488
-4.474962 -0.185942 13.641434
-4.447284 -0.186074 13.651105
-4.419367 -0.186197 13.660170
-4.389265 -0.186230 13.662562
-4.354720 -0.186073 13.651061
-4.326850 -0.186201 13.660472
-4.296448 -0.186222 13.661963
-4.262246 -0.186076 13.651307
-4.234249 -0.186202 13.660514
-4.205991 -0.186318 13.669005
-4.177772 -0.186437 13.677755
-4.149412 -0.186551 13.686166
-4.121179 -0.186674 13.695126
-4.089788 -0.186654 13.693650
-4.056359 -0.186539 13.685274
-4.027845 -0.186651 13.693478
-3.999436 -0.186770 13.702170
-3.970815 -0.186880 13.710265
-3.942252 -0.186995 13.718690
-3.913532 -0.187104 13.726699
-3.878779 -0.186924 13.713503
-3.848550 -0.186961 13.716219
-3.819847 -0.187074 13.724465
-3.790982 -0.187180 13.732257
-3.762185 -0.187291 13.740424
-3.733337 -0.187402 13.748540
-3.704323 -0.187506 13.756179
-3.675262 -0.187609 13.763767
-3.646251 -0.187717 13.771676
-3.617212 -0.187825 13.779614
-3.588005 -0.187927 13.787045
-3.558751 -0.188027 13.794424
-3.529533 -0.188131 13.802072
-3.500307 -0.188237 13.809827
-3.465026 -0.188016 13.793617
-3.434790 -0.188067 13.797378
-3.405422 -0.188168 13.804725
-3.375978 -0.188265 13.811897
-3.346518 -0.188364 13.819141
-3.316980 -0.188460 13.826194
-3.287458 -0.188559 13.833446
-3.254854 -0.188481 13.827748
-3.222490 -0.188416 13.822967
-3.192199 -0.188472 13.827070
-3.162552 -0.188568 13.834074
-3.132778 -0.188657 13.840654
-3.103042 -0.188751 13.847538
-3.073182 -0.188839 13.854006
-3.043358 -0.188931 13.860768
-3.013415 -0.189018 13.867122
-2.983505 -0.189109 13.873763
-2.953478 -0.189194 13.880000
-2.923483 -0.189282 13.886519
-2.893376 -0.189366 13.892640
-2.863298 -0.189453 13.899036
-2.828186 -0.189205 13.880873
-2.797480 -0.189250 13.884166
-2.767332 -0.189334 13.890334
-2.737091 -0.189414 13.896173
-2.706865 -0.189496 13.902221
-2.676546 -0.189574 13.907932
-2.646244 -0.189655 13.913863
-2.615848 -0.189731 13.919444
-2.580426 -0.189440 13.898084
-2.550026 -0.189515 13.903581
-2.521331 -0.189720 13.918633
-2.489140 -0.189664 13.914514
-2.458673 -0.189740 13.920057
-2.428121 -0.189810 13.925250
-2.397582 -0.189884 13.930662
-2.366961 -0.189953 13.935731
-2.336353 -0.190025 13.941012
-2.305669 -0.190093 13.945983
-2.274988 -0.190163 13.951104
-2.244240 -0.190229 13.955955
-2.213491 -0.190297 13.960938
-2.182679 -0.190361 13.965665
-2.151864 -0.190427 13.970509
-2.120991 -0.190490 13.975114
-2.093693 -0.190881 14.003773
-2.062386 -0.190912 14.006084
-2.029634 -0.190809 13.998499
-1.998307 -0.190838 14.000661
-1.966242 -0.190797 13.997638
-1.935194 -0.190855 14.001870
-1.904133 -0.190913 14.006150
-1.873029 -0.190969 14.010254
-1.841911 -0.191025 14.014390
-1.810773 -0.191082 14.018517
-1.779584 -0.191135 14.022394
-1.748379 -0.191187 14.026278
-1.717148 -0.191239 14.030095
-1.685891 -0.191291 14.033842
-1.655333 -0.191424 14.043657
-1.623727 -0.191440 14.044790
-1.595086 -0.191812 14.072131
-1.563671 -0.191860 14.075611
-1.531427 -0.191806 14.071626
-1.498285 -0.191634 14.059031
-1.469287 -0.191996 14.085632
-1.437782 -0.192040 14.088834
-1.404977 -0.191908 14.079161
-1.372025 -0.191750 14.067524
-1.341852 -0.191981 14.084520
-1.308994 -0.191831 14.073462
-1.277448 -0.191869 14.076305
-1.245882 -0.191907 14.079078
-1.214297 -0.191944 14.081779
-1.182695 -0.191980 14.084411
-1.151074 -0.192015 14.086971
-1.119437 -0.192049 14.089461
-1.088347 -0.192181 14.099182
-1.054225 -0.191770 14.069036
-1.018667 -0.191064 14.017252
-0.983222 -0.190335 13.963750
-0.951566 -0.190315 13.962298
-0.921674 -0.190659 13.987504
-0.895419 -0.191806 14.071679
-0.869526 -0.193118 14.167936
-0.838728 -0.193400 14.188568
-0.806936 -0.193465 14.193371
-0.774954 -0.193488 14.195084
-0.742960 -0.193511 14.196723
-0.710955 -0.193532 14.198291
-0.678940 -0.193552 14.199786
-0.646914 -0.193572 14.201207
-0.614879 -0.193590 14.202558
-0.581698 -0.193230 14.176131
-0.549708 -0.193246 14.177337
-0.517710 -0.193262 14.178463
-0.485704 -0.193276 14.179517
-0.453691 -0.193290 14.180497
-0.421672 -0.193302 14.181408
-0.389646 -0.193313 14.182242
-0.358229 -0.193656 14.207355
-0.323352 -0.192011 14.086709
-0.281086 -0.185140 13.582635
-0.250032 -0.184875 13.563195
-0.219364 -0.184862 13.562196
-0.188352 -0.184506 13.536111
-0.157765 -0.184510 13.536420
-0.127176 -0.184514 13.536659
-0.096586 -0.184516 13.536828
-0.065994 -0.184517 13.536927
-0.035497 -0.185011 13.573166
-0.004990 -0.191416 14.043061
0.027021 -0.193381 14.187228
0.059310 -0.194125 14.241782
0.091675 -0.194508 14.269881
0.124159 -0.194876 14.296916
0.156464 -0.194871 14.296502
0.188766 -0.194864 14.296016
0.221218 -0.194991 14.305305
0.253535 -0.194982 14.304670
0.285605 -0.194807 14.291798
0.317448 -0.194528 14.271350
0.349056 -0.194170 14.245057
0.380958 -0.194022 14.234202
0.412288 -0.193628 14.205317
0.443355 -0.193177 14.172223
0.477475 -0.194027 14.234600
0.513914 -0.195653 14.353868
0.525091 -0.188039 13.795261
0.355787 -0.120269 8.823417
0.372687 -0.119296 8.752024
0.390022 -0.118553 8.697524
0.407965 -0.118058 8.661176
0.426655 -0.117813 8.643270
0.445656 -0.117673 8.632964
0.464596 -0.117529 8.622390
0.483790 -0.117458 8.617196
0.503195 -0.117442 8.616016
0.522951 -0.117506 8.620715
0.543428 -0.117722 8.636528
0.563975 -0.117937 8.652308
0.583250 -0.117880 8.648181
0.601575 -0.117642 8.630692
0.792820 -0.150172 11.017242
1.081271 -0.198573 14.568143
1.110563 -0.197926 14.520668
1.141961 -0.197681 14.502670
1.172224 -0.197258 14.471655
1.202778 -0.196906 14.445826
1.232323 -0.196412 14.409565
1.264630 -0.196372 14.406641
1.297765 -0.196459 14.413047
1.331785 -0.196673 14.428731
1.364095 -0.196630 14.425585
1.396384 -0.196586 14.422367
1.431017 -0.196867 14.442953
1.463753 -0.196880 14.443903
1.496038 -0.196833 14.440465
1.528301 -0.196785 14.436954
1.563591 -0.197121 14.461592
1.597829 -0.197313 14.475689
1.631306 -0.197406 14.482464
1.663597 -0.197354 14.478658
1.698010 -0.197551 14.493105
1.730291 -0.197497 14.489152
1.761335 -0.197306 14.475180
1.794760 -0.197385 14.480923
1.829288 -0.197579 14.495211
1.862766 -0.197656 14.500817
1.897732 -0.197885 14.517611
1.930919 -0.197923 14.520453
1.963147 -0.197864 14.516112
1.995312 -0.197801 14.511461
2.027481 -0.197740 14.506986
2.061681 -0.197876 14.516949
2.095783 -0.197998 14.525927
2.129350 -0.198067 14.530977
2.161481 -0.198002 14.526222
2.193541 -0.197933 14.521135
2.225608 -0.197866 14.516248
2.260110 -0.198015 14.527152
2.292460 -0.197973 14.524116
2.329008 -0.198290 14.547379
2.362490 -0.198341 14.551111
2.394647 -0.198281 14.546694
2.426590 -0.198205 14.541116
2.456850 -0.197995 14.525735
2.490410 -0.198054 14.530010
2.525413 -0.198224 14.542489
2.557315 -0.198149 14.537017
2.594231 -0.198460 14.559823
2.627850 -0.198514 14.563785
2.659708 -0.198435 14.558010
2.691468 -0.198351 14.551848
2.726696 -0.198522 14.564363
2.758770 -0.198461 14.559928
2.795609 -0.198741 14.580448
2.829584 -0.198813 14.585730
2.864621 -0.198957 14.596301
2.896306 -0.198868 14.589745
2.928002 -0.198781 14.583391
2.963352 -0.198942 14.595181
2.995003 -0.198853 14.588686
3.029275 -0.198939 14.594964
3.066899 -0.199240 14.617082
3.101685 -0.199353 14.625347
3.133282 -0.199261 14.618561
3.164788 -0.199164 14.611492
3.196796 -0.199101 14.606864
3.234556 -0.199394 14.628347
3.267741 -0.199402 14.628914
3.305600 -0.199692 14.650182
3.337065 -0.199593 14.642970
3.366802 -0.199395 14.628394
3.399747 -0.199388 14.627905
3.433458 -0.199426 14.630688
3.464686 -0.199320 14.622939
3.498371 -0.199357 14.625610
3.531099 -0.199338 14.624265
3.565229 -0.199399 14.628697
3.596358 -0.199292 14.620852
3.628398 -0.199237 14.616814
3.662903 -0.199317 14.622691
3.696646 -0.199355 14.625450
3.727703 -0.199248 14.617625
3.758612 -0.199135 14.609364
3.789566 -0.199027 14.601419
3.827814 -0.199300 14.621476
3.858616 -0.199185 14.612989
3.889476 -0.199074 14.604862
3.927949 -0.199351 14.625218
3.958647 -0.199233 14.616529
3.989281 -0.199113 14.607749
4.019992 -0.198999 14.599391
4.058569 -0.199274 14.619506
4.089121 -0.199152 14.610620
4.127635 -0.199418 14.630097
4.158251 -0.199301 14.621494
4.188814 -0.199183 14.612841
4.219216 -0.199059 14.603765
4.257803 -0.199320 14.622944
4.293629 -0.199450 14.632417
4.327104 -0.199468 14.633793
4.357411 -0.199342 14.624517
4.396140 -0.199600 14.643434
4.433410 -0.199788 14.657245
4.465407 -0.199738 14.653546
4.501998 -0.199892 14.664865
4.534572 -0.199867 14.663030
4.573736 -0.200131 14.682380
4.610677 -0.200294 14.694364
4.650096 -0.200562 14.714017
4.689336 -0.200818 14.732826
4.699802 -0.199847 14.661610
4.661614 -0.196836 14.440670
4.680218 -0.196248 14.397509
4.718572 -0.196490 14.415278
4.744731 -0.196224 14.395805
4.774508 -0.196111 14.387502
4.797244 -0.195712 14.358233
4.851028 -0.196577 14.421662
4.948904 -0.199205 14.614452
4.990362 -0.199542 14.639184
5.029475 -0.199781 14.656754
5.059111 -0.199644 14.646662
5.088687 -0.199506 14.636525
5.089217 -0.198238 14.543513
5.097580 -0.197289 14.473938
5.110015 -0.196510 14.416738
5.135286 -0.196230 14.396245
-4.941705 -0.155783 13.568642
-4.905313 -0.155601 13.552814
-4.878119 -0.155711 13.562363
-4.850885 -0.155820 13.571918
-4.823582 -0.155929 13.581404
-4.796566 -0.156049 13.591822
-4.769142 -0.156157 13.601212
-4.740856 -0.156237 13.608249
-4.704964 -0.156067 13.593402
-4.677741 -0.156184 13.603569
-4.650187 -0.156291 13.612905
-4.622537 -0.156396 13.622083
-4.590534 -0.156355 13.618467
-4.558439 -0.156309 13.614531
-4.530730 -0.156415 13.623726
-4.502910 -0.156518 13.632714
-4.475036 -0.156621 13.641660
-4.447358 -0.156732 13.651332
-4.419441 -0.156836 13.660398
-4.389338 -0.156864 13.662790
-4.354792 -0.156731 13.651289
-4.326923 -0.156840 13.660701
-4.297419 -0.156889 13.665051
-4.262317 -0.156734 13.651535
-4.234320 -0.156840 13.660744
-4.206061 -0.156938 13.669235
-4.177843 -0.157038 13.677986
-4.149482 -0.157135 13.686397
-4.121248 -0.157237 13.695356
-4.092778 -0.157333 13.703660
-4.056428 -0.157124 13.685506
-4.027913 -0.157219 13.693709
-3.999504 -0.157318 13.702402
-3.970882 -0.157411 13.710498
-3.942319 -0.157508 13.718924
-3.913599 -0.157600 13.726933
-3.879932 -0.157493 13.717580
-3.848615 -0.157480 13.716454
-3.819912 -0.157574 13.724699
-3.791047 -0.157664 13.732491
-3.762249 -0.157758 13.740659
-3.733401 -0.157851 13.748776
-3.704387 -0.157938 13.756414
-3.675325 -0.158026 13.764003
-3.646314 -0.158116 13.771913
-3.617274 -0.158208 13.779852
-3.588067 -0.158293 13.787283
-3.558813 -0.158378 13.794662
-3.529594 -0.158465 13.802311
-3.500368 -0.158554 13.810066
-3.465747 -0.158398 13.796485
-3.434850 -0.158411 13.797617
-3.405481 -0.158496 13.804964
-3.376036 -0.158578 13.812138
-3.346576 -0.158661 13.819381
-3.317038 -0.158742 13.826433
-3.287515 -0.158826 13.833687
-3.257857 -0.158904 13.840504
-3.221943 -0.158676 13.820620
-3.192255 -0.158752 13.827312
-3.162607 -0.158833 13.834316
-3.132833 -0.158908 13.840897
-3.103096 -0.158987 13.847780
-3.073236 -0.159062 13.854247
-3.043412 -0.159139 13.861012
-3.013468 -0.159212 13.867365
-2.983557 -0.159289 13.874007
-2.953530 -0.159360 13.880243
-2.923535 -0.159435 13.886764
-2.893427 -0.159505 13.892883
-2.861458 -0.159473 13.890105
-2.828004 -0.159357 13.879976
-2.797530 -0.159408 13.884411
-2.767381 -0.159479 13.890578
-2.737140 -0.159546 13.896418
-2.706913 -0.159615 13.902469
-2.676594 -0.159681 13.908178
-2.646290 -0.159749 13.914109
-2.615895 -0.159813 13.919691
-2.580519 -0.159571 13.898585
-2.550061 -0.159630 13.903772
-2.519667 -0.159695 13.909445
-2.489184 -0.159756 13.914761
-2.458837 -0.159828 13.920985
-2.432659 -0.160176 13.951276
-2.397625 -0.159942 13.930912
-2.367004 -0.160000 13.935981
-2.336395 -0.160061 13.941260
-2.305711 -0.160118 13.946232
-2.275029 -0.160177 13.951354
-2.244626 -0.160257 13.958354
-2.214963 -0.160393 13.970222
-2.182718 -0.160344 13.965917
-2.151902 -0.160399 13.970758
-2.121029 -0.160452 13.975366
-2.090628 -0.160543 13.983272
-2.063241 -0.160872 14.011890
-2.032238 -0.160924 14.016461
-2.000638 -0.160930 14.016991
-1.966278 -0.160711 13.997890
-1.935229 -0.160759 14.002123
-1.904167 -0.160809 14.006402
-1.873063 -0.160856 14.010508
-1.841944 -0.160903 14.014644
-1.810805 -0.160951 14.018770
-1.780534 -0.161078 14.029876
-1.748411 -0.161040 14.026532
-1.717179 -0.161083 14.030349
-1.685922 -0.161127 14.034097
-1.657875 -0.161484 14.065220
-1.626507 -0.161525 14.068838
-1.595115 -0.161566 14.072387
-1.563699 -0.161606 14.075866
-1.532260 -0.161645 14.079277
-1.500798 -0.161684 14.082617
-1.469314 -0.161721 14.085889
-1.437808 -0.161758 14.089089
-1.405495 -0.161703 14.084351
-1.374732 -0.161829 14.095283
-1.342667 -0.161804 14.093075
-1.309508 -0.161642 14.078986
-1.277471 -0.161614 14.076563
-1.245904 -0.161646 14.079335
-1.214319 -0.161677 14.082037
-1.182716 -0.161707 14.084668
-1.151096 -0.161737 14.087229
-1.118485 -0.161625 14.077483
-1.082321 -0.160978 14.021122
-1.043879 -0.159942 13.930962
-1.009028 -0.159410 13.884622
-0.976156 -0.159167 13.863407
-0.943978 -0.159024 13.850964
-0.912416 -0.158978 13.847004
-0.882308 -0.159192 13.865632
-0.857011 -0.160322 13.964023
-0.834200 -0.162021 14.111970
-0.805877 -0.162741 14.174746
-0.774302 -0.162838 14.183157
-0.742415 -0.162874 14.186313
-0.710968 -0.163015 14.198551
-0.678952 -0.163032 14.200047
-0.646926 -0.163048 14.201468
-0.613957 -0.162816 14.181252
-0.581709 -0.162760 14.176392
-0.549719 -0.162774 14.177596
-0.517720 -0.162787 14.178722
-0.485713 -0.162799 14.179777
-0.453699 -0.162810 14.180757
-0.421679 -0.162821 14.181668
-0.389653 -0.162830 14.182504
-0.357588 -0.162824 14.181966
-0.316062 -0.158084 13.769108
